0.058263 -0.116479 -0.323752 0.300000 0.600000 0.000000
0.325479 -0.449769 -0.083405 0.300000 0.600000 0.000000
0.060781 0.267028 -0.323204 0.300000 0.600000 0.000000
0.094377 0.933218 -0.284378 0.300000 0.000000 0.600000
0.038803 0.651431 -0.092805 0.300000 0.600000 0.000000
0.247353 0.525535 -0.123063 0.300000 0.600000 0.000000
-0.248633 0.551152 0.054844 0.300000 0.600000 0.000000
-0.121327 -0.656131 0.286119 0.300000 0.600000 0.000000
0.299938 0.146109 -0.148297 0.300000 0.600000 0.000000
0.194893 -0.372461 -0.268160 0.300000 0.600000 0.000000
-0.117258 -0.497532 -0.305582 0.300000 0.600000 0.000000
0.123190 -0.053853 0.320573 0.300000 0.600000 0.000000
0.294870 -0.289361 0.172000 0.300000 0.600000 0.000000
-0.330062 -0.351900 -0.016086 0.300000 0.600000 0.000000
-0.200511 -0.062957 -0.259208 0.300000 0.600000 0.000000
0.313962 -0.398939 -0.122164 0.300000 0.600000 0.000000
0.062786 0.549088 -0.244000 0.300000 0.600000 0.000000
-0.016998 0.659141 -0.086314 0.300000 0.600000 0.000000
0.172619 -0.678091 -0.062746 0.300000 0.600000 0.000000
-0.311263 -0.099400 0.121466 0.300000 0.600000 0.000000
0.338008 0.109001 -0.014081 0.300000 0.600000 0.000000
0.284665 -0.156389 0.189301 0.300000 0.600000 0.000000
0.090428 -0.565642 0.330210 0.300000 0.600000 0.000000
0.229790 -0.105772 -0.238906 0.300000 0.600000 0.000000
-0.219240 0.495142 -0.186026 0.300000 0.600000 0.000000
-0.287716 0.359819 0.168134 0.300000 0.600000 0.000000
-0.077788 -0.072184 0.331385 0.300000 0.600000 0.000000
-0.318196 0.317356 0.095501 0.300000 0.600000 0.000000
0.033256 0.973811 -0.082404 0.300000 0.000000 0.600000
-0.329203 -0.094032 0.046999 0.300000 0.600000 0.000000
0.322954 -0.033955 -0.092540 0.300000 0.600000 0.000000
-0.193900 0.097165 -0.263818 0.300000 0.600000 0.000000
0.311703 0.465526 0.044929 0.300000 0.600000 0.000000
-0.268273 0.404435 0.190447 0.300000 0.600000 0.000000
-0.095525 0.315154 -0.311767 0.300000 0.600000 0.000000
-0.049442 0.110664 -0.323848 0.300000 0.600000 0.000000
-0.324825 0.331225 0.069913 0.300000 0.600000 0.000000
-0.100939 -0.241978 -0.310336 0.300000 0.600000 0.000000
-0.169071 0.134440 0.293287 0.300000 0.600000 0.000000
0.266564 0.144879 0.216281 0.300000 0.600000 0.000000
-0.330074 -0.390396 0.016973 0.300000 0.600000 0.000000
0.327657 -0.330746 0.090654 0.300000 0.600000 0.000000
0.283641 0.441130 -0.143617 0.300000 0.600000 0.000000
-0.051581 0.383774 0.334458 0.300000 0.600000 0.000000
-0.051915 -0.678091 -0.208999 0.300000 0.600000 0.000000
-0.139640 -0.106472 -0.295226 0.300000 0.600000 0.000000
-0.112736 -0.346448 0.320987 0.300000 0.600000 0.000000
0.171232 0.603135 0.120009 0.300000 0.600000 0.000000
-0.183706 0.382504 0.281049 0.300000 0.600000 0.000000
-0.161063 0.626055 0.011134 0.300000 0.600000 0.000000
0.258857 0.160763 -0.210248 0.300000 0.600000 0.000000
0.133087 -0.407153 0.317649 0.300000 0.600000 0.000000
0.174698 -0.005111 -0.279834 0.300000 0.600000 0.000000
0.059406 -0.281569 0.337438 0.300000 0.600000 0.000000
-0.174472 -0.090078 0.290168 0.300000 0.600000 0.000000
0.335493 -0.536194 -0.045324 0.300000 0.600000 0.000000
0.012418 0.670421 -0.080553 0.600000 0.000000 0.300000
0.337813 0.217599 0.020364 0.300000 0.600000 0.000000
-0.299871 -0.347014 0.148835 0.300000 0.600000 0.000000
-0.052131 0.640689 -0.114627 0.300000 0.600000 0.000000
-0.216196 -0.151297 -0.244825 0.300000 0.600000 0.000000
-0.243604 0.561069 -0.014884 0.300000 0.600000 0.000000
0.317870 0.139208 0.124513 0.300000 0.600000 0.000000
-0.270190 -0.236058 -0.185697 0.300000 0.600000 0.000000
-0.255049 -0.169586 -0.205973 0.300000 0.600000 0.000000
-0.058161 0.691456 -0.036593 0.600000 0.000000 0.300000
-0.330074 -0.226747 0.021958 0.300000 0.600000 0.000000
0.113570 -0.053269 -0.309108 0.300000 0.600000 0.000000
0.108301 -0.172706 -0.310538 0.300000 0.600000 0.000000
0.136804 -0.474827 0.315831 0.300000 0.600000 0.000000
0.070643 -0.597659 0.334253 0.300000 0.600000 0.000000
-0.084736 0.619399 -0.145346 0.300000 0.600000 0.000000
-0.258509 -0.331956 0.216904 0.300000 0.600000 0.000000
-0.298223 -0.117297 -0.136985 0.300000 0.600000 0.000000
-0.267936 0.091167 0.204365 0.300000 0.600000 0.000000
0.079010 0.674278 -0.038501 0.600000 0.000000 0.300000
-0.330071 -0.140344 -0.006746 0.300000 0.600000 0.000000
0.061847 -0.074240 0.337820 0.300000 0.600000 0.000000
-0.059941 0.548541 -0.243328 0.300000 0.600000 0.000000
0.331334 0.120183 0.076540 0.300000 0.600000 0.000000
-0.144538 -0.451412 0.307446 0.300000 0.600000 0.000000
-0.214653 -0.581071 -0.246207 0.300000 0.600000 0.000000
0.284012 0.258445 0.190094 0.300000 0.600000 0.000000
-0.101383 0.634488 0.110866 0.300000 0.600000 0.000000
0.304393 0.243679 0.155251 0.300000 0.600000 0.000000
0.230448 0.383201 -0.233934 0.300000 0.600000 0.000000
-0.225387 -0.654218 -0.196451 0.300000 0.600000 0.000000
0.338214 -0.293750 0.010465 0.300000 0.600000 0.000000
0.244930 -0.675165 0.121599 0.300000 0.600000 0.000000
0.314549 0.377804 -0.113123 0.300000 0.600000 0.000000
0.322772 0.046181 0.106464 0.300000 0.600000 0.000000
0.045504 0.805959 0.008643 0.300000 0.000000 0.600000
-0.003282 0.310823 -0.326682 0.300000 0.600000 0.000000
-0.204573 -0.454257 0.270501 0.300000 0.600000 0.000000
0.323697 0.222281 -0.090694 0.300000 0.600000 0.000000
-0.232339 0.062124 -0.228685 0.300000 0.600000 0.000000
-0.310439 -0.331798 -0.109511 0.300000 0.600000 0.000000
0.150474 -0.012258 0.308035 0.300000 0.600000 0.000000
-0.201744 -0.246263 -0.258232 0.300000 0.600000 0.000000
0.217964 0.450943 0.237959 0.300000 0.600000 0.000000
-0.181899 -0.422636 -0.270966 0.300000 0.600000 0.000000
-0.040819 0.554080 0.258198 0.300000 0.600000 0.000000
0.139331 0.910854 -0.263881 0.300000 0.000000 0.600000
0.333220 0.296554 0.069390 0.300000 0.600000 0.000000
-0.237804 -0.669765 0.157410 0.300000 0.600000 0.000000
-0.053930 -0.678091 -0.080320 0.300000 0.600000 0.000000
0.181106 0.370499 -0.273885 0.300000 0.600000 0.000000
-0.316062 0.024496 0.103703 0.300000 0.600000 0.000000
0.122006 -0.678091 -0.003265 0.300000 0.600000 0.000000
-0.161841 0.559995 -0.178627 0.300000 0.600000 0.000000
-0.317392 -0.634181 -0.019715 0.300000 0.600000 0.000000
0.211086 -0.286316 0.271991 0.300000 0.600000 0.000000
0.018810 0.867267 -0.031168 0.300000 0.000000 0.600000
0.331897 -0.121954 -0.059760 0.300000 0.600000 0.000000
0.333294 -0.467363 0.068831 0.300000 0.600000 0.000000
-0.124584 -0.150357 -0.302909 0.300000 0.600000 0.000000
-0.224975 -0.471571 0.250957 0.300000 0.600000 0.000000
0.325617 -0.246674 -0.083508 0.300000 0.600000 0.000000
0.310855 0.083371 0.143438 0.300000 0.600000 0.000000
0.304952 -0.042592 0.154519 0.300000 0.600000 0.000000
0.026531 0.897085 0.088430 0.300000 0.000000 0.600000
0.040352 0.868881 0.081956 0.300000 0.000000 0.600000
-0.120485 -0.374388 -0.304452 0.300000 0.600000 0.000000
-0.292269 0.476332 0.076369 0.300000 0.600000 0.000000
-0.131172 -0.504582 0.314156 0.300000 0.600000 0.000000
0.134200 -0.673362 -0.235675 0.300000 0.600000 0.000000
0.160304 -0.229364 -0.288145 0.300000 0.600000 0.000000
0.328774 -0.521991 0.085107 0.300000 0.600000 0.000000
0.261373 0.347805 -0.206499 0.300000 0.600000 0.000000
-0.089009 -0.425524 -0.313532 0.300000 0.600000 0.000000
0.331562 -0.384406 0.075995 0.300000 0.600000 0.000000
-0.308307 0.456546 -0.014335 0.300000 0.600000 0.000000
0.038187 -0.388805 -0.326321 0.300000 0.600000 0.000000
-0.085555 0.583354 0.214281 0.300000 0.600000 0.000000
0.236243 -0.121327 0.247829 0.300000 0.600000 0.000000
0.337195 0.230094 0.045677 0.300000 0.600000 0.000000
-0.017736 0.722671 0.059658 0.600000 0.000000 0.300000
0.047851 0.928720 0.078666 0.300000 0.000000 0.600000
-0.131709 -0.658573 -0.262382 0.300000 0.600000 0.000000
-0.320887 -0.051557 -0.070504 0.300000 0.600000 0.000000
0.250167 0.043695 0.233908 0.300000 0.600000 0.000000
-0.214672 0.391666 -0.239816 0.300000 0.600000 0.000000
0.219883 -0.214684 0.263757 0.300000 0.600000 0.000000
-0.101528 -0.677035 -0.225470 0.300000 0.600000 0.000000
0.146048 -0.132482 0.310876 0.300000 0.600000 0.000000
0.088089 0.973705 -0.215269 0.300000 0.000000 0.600000
0.144580 -0.102174 -0.296954 0.300000 0.600000 0.000000
-0.255387 -0.582173 -0.205508 0.300000 0.600000 0.000000
0.135080 0.045342 0.316546 0.300000 0.600000 0.000000
-0.322875 0.404705 0.038769 0.300000 0.600000 0.000000
-0.256428 0.520412 0.111311 0.300000 0.600000 0.000000
-0.309827 0.060007 -0.111410 0.300000 0.600000 0.000000
0.267499 0.291187 0.215912 0.300000 0.600000 0.000000
0.323809 -0.392990 0.105163 0.300000 0.600000 0.000000
0.299187 -0.356566 0.164522 0.300000 0.600000 0.000000
0.036068 0.640049 0.139647 0.300000 0.600000 0.000000
0.190341 0.422403 -0.258194 0.300000 0.600000 0.000000
0.079013 0.366876 0.331547 0.300000 0.600000 0.000000
-0.329811 0.198293 0.040407 0.300000 0.600000 0.000000
0.257478 -0.634789 -0.192350 0.300000 0.600000 0.000000
-0.323308 -0.112570 -0.061463 0.300000 0.600000 0.000000
0.048730 -0.678091 -0.011652 0.300000 0.600000 0.000000
0.142545 0.238668 0.312182 0.300000 0.600000 0.000000
-0.269390 -0.113534 -0.187080 0.300000 0.600000 0.000000
-0.018199 0.974440 0.025555 0.300000 0.000000 0.600000
0.044817 0.219338 0.340044 0.300000 0.600000 0.000000
0.229269 -0.530774 -0.239899 0.300000 0.600000 0.000000
0.209351 0.493391 -0.205606 0.300000 0.600000 0.000000
-0.032123 -0.394432 0.340704 0.300000 0.600000 0.000000
-0.310909 -0.039171 -0.107803 0.300000 0.600000 0.000000
0.267053 -0.087625 0.215201 0.300000 0.600000 0.000000
-0.224748 -0.502599 0.251183 0.300000 0.600000 0.000000
0.253754 0.377846 -0.211851 0.300000 0.600000 0.000000
-0.043451 -0.291350 0.339521 0.300000 0.600000 0.000000
-0.234011 0.502210 -0.161667 0.300000 0.600000 0.000000
-0.311191 0.352291 0.118720 0.300000 0.600000 0.000000
0.181764 0.602137 -0.089652 0.300000 0.600000 0.000000
-0.268188 -0.673451 0.048413 0.300000 0.600000 0.000000
0.242267 -0.285463 -0.226292 0.300000 0.600000 0.000000
0.330163 -0.625332 0.024444 0.300000 0.600000 0.000000
0.136747 0.269838 -0.300948 0.300000 0.600000 0.000000
-0.150366 -0.571392 -0.289176 0.300000 0.600000 0.000000
0.050259 0.848354 0.013596 0.300000 0.000000 0.600000
-0.164335 -0.338673 0.295940 0.300000 0.600000 0.000000
-0.315635 -0.149520 -0.090408 0.300000 0.600000 0.000000
0.239671 -0.508782 0.244402 0.300000 0.600000 0.000000
-0.236156 -0.615039 0.232969 0.300000 0.600000 0.000000
0.017353 0.936917 -0.185434 0.300000 0.000000 0.600000
-0.306360 -0.565535 -0.121065 0.300000 0.600000 0.000000
0.336501 0.171591 0.054319 0.300000 0.600000 0.000000
-0.329924 -0.579941 -0.019956 0.300000 0.600000 0.000000
-0.021581 -0.286376 -0.326678 0.300000 0.600000 0.000000
-0.194709 -0.147180 0.278153 0.300000 0.600000 0.000000
0.260159 0.248501 -0.208437 0.300000 0.600000 0.000000
-0.312068 -0.234753 -0.103590 0.300000 0.600000 0.000000
-0.329238 0.066732 0.046620 0.300000 0.600000 0.000000
-0.082887 0.492529 0.290864 0.300000 0.600000 0.000000
-0.164617 -0.678091 0.061879 0.300000 0.600000 0.000000
0.217668 0.592777 0.031234 0.300000 0.600000 0.000000
-0.098414 0.651575 -0.026630 0.300000 0.600000 0.000000
-0.291248 0.449547 -0.107042 0.300000 0.600000 0.000000
-0.217329 -0.672573 -0.160112 0.300000 0.600000 0.000000
0.327736 0.184075 0.090355 0.300000 0.600000 0.000000
0.037096 0.667545 0.055269 0.600000 0.000000 0.300000
-0.215747 -0.495519 -0.245274 0.300000 0.600000 0.000000
-0.049841 0.172265 0.338687 0.300000 0.600000 0.000000
0.178977 -0.202772 -0.277363 0.300000 0.600000 0.000000
-0.173781 -0.678091 -0.084006 0.300000 0.600000 0.000000
-0.247344 -0.676649 -0.050621 0.300000 0.600000 0.000000
-0.321329 -0.422713 -0.068846 0.300000 0.600000 0.000000
0.316033 0.078383 -0.116930 0.300000 0.600000 0.000000
-0.277081 0.499481 -0.073755 0.300000 0.600000 0.000000
-0.177493 -0.524080 -0.273515 0.300000 0.600000 0.000000
-0.309404 0.089826 0.127563 0.300000 0.600000 0.000000
0.043591 0.652164 0.106045 0.300000 0.600000 0.000000
-0.216886 -0.670035 0.186697 0.300000 0.600000 0.000000
-0.271400 0.525785 -0.021154 0.300000 0.600000 0.000000
-0.275795 -0.092506 0.190934 0.300000 0.600000 0.000000
0.125830 0.631764 -0.085991 0.300000 0.600000 0.000000
0.218297 -0.415447 0.265762 0.300000 0.600000 0.000000
0.289935 -0.398507 -0.165629 0.300000 0.600000 0.000000
-0.087941 -0.189996 0.328608 0.300000 0.600000 0.000000
-0.314223 -0.166917 0.110572 0.300000 0.600000 0.000000
0.216891 -0.162645 -0.251792 0.300000 0.600000 0.000000
-0.090765 -0.378751 -0.313061 0.300000 0.600000 0.000000
-0.119899 0.460870 -0.278723 0.300000 0.600000 0.000000
-0.014079 -0.620748 -0.320381 0.300000 0.600000 0.000000
-0.316955 -0.615108 -0.067034 0.300000 0.600000 0.000000
0.157894 -0.675822 0.221927 0.300000 0.600000 0.000000
-0.222676 -0.185722 0.253256 0.300000 0.600000 0.000000
0.008033 0.004809 0.341597 0.300000 0.600000 0.000000
0.153537 0.585799 0.172410 0.300000 0.600000 0.000000
0.283898 0.268127 -0.175396 0.300000 0.600000 0.000000
0.337545 -0.038664 0.012173 0.300000 0.600000 0.000000
0.240005 -0.392909 0.244057 0.300000 0.600000 0.000000
0.304169 -0.488267 -0.140964 0.300000 0.600000 0.000000
0.041125 -0.470639 -0.326051 0.300000 0.600000 0.000000
0.144796 0.938692 -0.188373 0.300000 0.000000 0.600000
0.260303 0.550897 -0.019441 0.300000 0.600000 0.000000
-0.133068 -0.365196 0.313301 0.300000 0.600000 0.000000
-0.306790 -0.464577 0.135041 0.300000 0.600000 0.000000
-0.171120 -0.204359 -0.277199 0.300000 0.600000 0.000000
0.258751 -0.388425 -0.209505 0.300000 0.600000 0.000000
-0.233224 -0.654358 0.203612 0.300000 0.600000 0.000000
0.260304 0.489854 -0.143605 0.300000 0.600000 0.000000
0.330283 -0.051229 0.080045 0.300000 0.600000 0.000000
0.223453 0.072579 -0.245713 0.300000 0.600000 0.000000
0.058764 0.160019 0.338568 0.300000 0.600000 0.000000
0.044686 0.973678 -0.163489 0.300000 0.000000 0.600000
-0.269782 -0.390446 -0.186405 0.300000 0.600000 0.000000
0.323194 -0.193933 -0.091712 0.300000 0.600000 0.000000
-0.244324 0.544386 -0.078809 0.300000 0.600000 0.000000
0.041445 0.135959 -0.326021 0.300000 0.600000 0.000000
-0.015460 0.786319 0.043800 0.300000 0.000000 0.600000
-0.289992 -0.310311 -0.151440 0.300000 0.600000 0.000000
0.232734 0.570843 0.076629 0.300000 0.600000 0.000000
0.138986 -0.184790 0.314328 0.300000 0.600000 0.000000
-0.295037 0.242610 -0.142700 0.300000 0.600000 0.000000
0.006678 0.405490 0.334309 0.300000 0.600000 0.000000
0.046159 -0.674584 0.274398 0.300000 0.600000 0.000000
-0.002841 0.408040 -0.319140 0.300000 0.600000 0.000000
-0.024190 -0.678091 0.156754 0.300000 0.600000 0.000000
0.163248 0.933601 -0.255618 0.300000 0.000000 0.600000
-0.203755 -0.033363 -0.256514 0.300000 0.600000 0.000000
-0.313351 -0.469229 -0.098930 0.300000 0.600000 0.000000
0.110622 0.152680 0.324830 0.300000 0.600000 0.000000
0.090468 -0.026607 0.330200 0.300000 0.600000 0.000000
0.036700 -0.678091 0.043305 0.300000 0.600000 0.000000
0.298110 -0.061732 -0.151425 0.300000 0.600000 0.000000
-0.276505 -0.160675 0.189707 0.300000 0.600000 0.000000
0.046890 0.286255 0.340424 0.300000 0.600000 0.000000
0.313181 0.438041 0.084906 0.300000 0.600000 0.000000
-0.069116 0.080091 0.333683 0.300000 0.600000 0.000000
0.173996 0.575837 -0.153037 0.300000 0.600000 0.000000
-0.258920 -0.278874 0.216422 0.300000 0.600000 0.000000
-0.241425 -0.611327 -0.214840 0.300000 0.600000 0.000000
-0.101631 -0.194751 -0.310151 0.300000 0.600000 0.000000
0.173518 0.518373 0.233149 0.300000 0.600000 0.000000
-0.237317 -0.419789 0.238613 0.300000 0.600000 0.000000
-0.276339 -0.151959 -0.175074 0.300000 0.600000 0.000000
0.338214 0.270254 0.009065 0.300000 0.600000 0.000000
-0.208898 0.565662 -0.110937 0.300000 0.600000 0.000000
-0.015197 0.669030 0.065229 0.600000 0.000000 0.300000
0.080129 0.329173 0.332745 0.300000 0.600000 0.000000
0.139466 0.969844 -0.360872 0.300000 0.000000 0.600000
-0.328922 -0.077982 -0.035169 0.300000 0.600000 0.000000
0.247619 -0.164275 0.236002 0.300000 0.600000 0.000000
0.080757 0.862511 -0.007757 0.300000 0.000000 0.600000
0.336902 -0.116557 0.051793 0.300000 0.600000 0.000000
0.210585 -0.228975 -0.257591 0.300000 0.600000 0.000000
-0.088327 0.587728 -0.193271 0.300000 0.600000 0.000000
-0.324091 -0.143882 0.073503 0.300000 0.600000 0.000000
-0.285120 0.042994 0.174794 0.300000 0.600000 0.000000
0.298614 -0.562780 -0.150590 0.300000 0.600000 0.000000
0.068654 0.717448 0.033108 0.600000 0.000000 0.300000
0.132868 -0.185734 -0.302841 0.300000 0.600000 0.000000
-0.210714 0.289216 -0.250303 0.300000 0.600000 0.000000
0.265055 -0.673566 -0.080714 0.300000 0.600000 0.000000
0.178681 0.077192 0.292015 0.300000 0.600000 0.000000
-0.316301 0.363850 -0.082467 0.300000 0.600000 0.000000
0.019888 -0.093215 0.341598 0.300000 0.600000 0.000000
-0.280137 -0.659192 -0.094203 0.300000 0.600000 0.000000
0.301190 -0.595622 0.158505 0.300000 0.600000 0.000000
-0.001171 0.634237 0.156017 0.300000 0.600000 0.000000
-0.256561 0.439021 0.192778 0.300000 0.600000 0.000000
-0.050151 -0.678091 0.111209 0.300000 0.600000 0.000000
-0.306164 0.379742 -0.113034 0.300000 0.600000 0.000000
-0.069325 -0.278305 0.333627 0.300000 0.600000 0.000000
-0.089638 -0.678091 0.031214 0.300000 0.600000 0.000000
0.045447 0.759730 0.007915 0.300000 0.000000 0.600000
-0.052442 0.328171 0.337662 0.300000 0.600000 0.000000
0.089902 0.539190 0.260398 0.300000 0.600000 0.000000
-0.171491 -0.161465 0.291890 0.300000 0.600000 0.000000
0.183073 -0.316008 -0.274996 0.300000 0.600000 0.000000
-0.079834 0.898161 0.014184 0.300000 0.000000 0.600000
0.259791 -0.318764 -0.208157 0.300000 0.600000 0.000000
-0.194439 0.135065 0.278342 0.300000 0.600000 0.000000
-0.102044 0.011540 -0.310040 0.300000 0.600000 0.000000
0.256987 -0.520644 -0.211994 0.300000 0.600000 0.000000
-0.257089 -0.231750 0.218571 0.300000 0.600000 0.000000
0.245453 -0.198389 -0.223584 0.300000 0.600000 0.000000
0.107405 0.923980 -0.051897 0.300000 0.000000 0.600000
-0.034976 0.751812 0.020658 0.300000 0.000000 0.600000
-0.258782 -0.205267 0.216584 0.300000 0.600000 0.000000
-0.280221 -0.468234 0.183279 0.300000 0.600000 0.000000
0.337841 -0.373255 -0.026724 0.300000 0.600000 0.000000
-0.052256 0.410025 -0.314705 0.300000 0.600000 0.000000
-0.001279 0.703861 -0.033456 0.300000 0.000000 0.600000
0.331157 -0.294249 -0.061375 0.300000 0.600000 0.000000
0.311906 -0.323368 0.141289 0.300000 0.600000 0.000000
0.015670 -0.407140 0.341597 0.300000 0.600000 0.000000
-0.273462 0.362226 -0.177524 0.300000 0.600000 0.000000
0.077660 0.909979 -0.198105 0.300000 0.000000 0.600000
-0.185537 -0.280160 -0.268863 0.300000 0.600000 0.000000
-0.295419 -0.656989 -0.047389 0.300000 0.600000 0.000000
-0.021132 0.832204 -0.025226 0.300000 0.000000 0.600000
0.099896 0.946018 -0.024490 0.300000 0.000000 0.600000
0.203692 -0.440450 -0.262661 0.300000 0.600000 0.000000
-0.075268 0.884636 -0.021066 0.300000 0.000000 0.600000
0.319573 -0.319272 -0.105898 0.300000 0.600000 0.000000
-0.240478 -0.674009 -0.112359 0.300000 0.600000 0.000000
-0.122830 -0.433566 0.317833 0.300000 0.600000 0.000000
0.295993 0.289399 0.170056 0.300000 0.600000 0.000000
-0.045283 0.437690 0.323330 0.300000 0.600000 0.000000
-0.008935 0.176031 0.341595 0.300000 0.600000 0.000000
-0.204709 0.054522 -0.255699 0.300000 0.600000 0.000000
0.223573 -0.678091 -0.034247 0.300000 0.600000 0.000000
-0.209716 -0.678091 0.074447 0.300000 0.600000 0.000000
-0.173568 -0.240524 0.289902 0.300000 0.600000 0.000000
0.021925 0.830683 0.044847 0.300000 0.000000 0.600000
-0.030288 0.456359 -0.304369 0.300000 0.600000 0.000000
-0.260334 -0.656284 0.158267 0.300000 0.600000 0.000000
0.213731 0.013959 -0.254947 0.300000 0.600000 0.000000
-0.319925 0.226676 0.089115 0.300000 0.600000 0.000000
0.143986 -0.565187 0.312182 0.300000 0.600000 0.000000
-0.296261 0.398326 0.143519 0.300000 0.600000 0.000000
-0.074917 -0.018908 -0.317231 0.300000 0.600000 0.000000
0.284421 -0.365111 -0.175170 0.300000 0.600000 0.000000
-0.131728 0.517803 -0.238890 0.300000 0.600000 0.000000
0.227838 -0.624768 0.244763 0.300000 0.600000 0.000000
-0.278527 -0.496487 0.186211 0.300000 0.600000 0.000000
-0.219491 0.240288 0.256441 0.300000 0.600000 0.000000
0.278839 -0.272158 0.199392 0.300000 0.600000 0.000000
-0.034763 -0.089798 0.340603 0.300000 0.600000 0.000000
-0.081138 0.025785 0.330508 0.300000 0.600000 0.000000
-0.086760 0.246979 0.328704 0.300000 0.600000 0.000000
0.066271 0.599523 0.203784 0.300000 0.600000 0.000000
-0.264915 -0.528862 -0.193789 0.300000 0.600000 0.000000
0.116980 0.950068 -0.359518 0.300000 0.000000 0.600000
-0.313152 0.112559 -0.099652 0.300000 0.600000 0.000000
0.321494 0.093127 0.110708 0.300000 0.600000 0.000000
0.227284 0.226421 0.256709 0.300000 0.600000 0.000000
-0.330074 -0.516450 0.017122 0.300000 0.600000 0.000000
0.082378 -0.299061 0.331901 0.300000 0.600000 0.000000
-0.314100 -0.417486 -0.096134 0.300000 0.600000 0.000000
-0.101542 -0.293062 0.324408 0.300000 0.600000 0.000000
0.004397 0.963895 -0.141231 0.300000 0.000000 0.600000
0.091772 0.974268 -0.153303 0.300000 0.000000 0.600000
0.265608 0.000647 -0.202706 0.300000 0.600000 0.000000
-0.311413 -0.290992 0.120916 0.300000 0.600000 0.000000
0.327036 0.256823 0.092360 0.300000 0.600000 0.000000
0.029348 0.664434 -0.014427 0.600000 0.000000 0.300000
0.019409 0.455313 0.320223 0.300000 0.600000 0.000000
0.269007 -0.173065 -0.198711 0.300000 0.600000 0.000000
0.043030 0.326610 0.340602 0.300000 0.600000 0.000000
-0.149913 -0.653973 0.272355 0.300000 0.600000 0.000000
0.266739 -0.643461 -0.168924 0.300000 0.600000 0.000000
-0.182265 0.535926 0.201121 0.300000 0.600000 0.000000
-0.303337 0.341679 0.141155 0.300000 0.600000 0.000000
-0.049901 -0.633210 0.326103 0.300000 0.600000 0.000000
0.337601 0.104188 0.025622 0.300000 0.600000 0.000000
0.227688 -0.054693 0.256383 0.300000 0.600000 0.000000
0.193965 0.609759 -0.020079 0.300000 0.600000 0.000000
-0.020618 -0.597360 0.340373 0.300000 0.600000 0.000000
-0.315774 -0.386075 -0.089888 0.300000 0.600000 0.000000
-0.047612 0.296937 0.338901 0.300000 0.600000 0.000000
-0.073145 0.930714 -0.026407 0.300000 0.000000 0.600000
0.050666 0.586080 -0.209944 0.300000 0.600000 0.000000
-0.244103 -0.011636 0.231826 0.300000 0.600000 0.000000
-0.196514 0.163495 0.276896 0.300000 0.600000 0.000000
0.069417 0.388422 -0.316655 0.300000 0.600000 0.000000
0.074305 -0.678091 -0.089346 0.300000 0.600000 0.000000
0.102388 0.092280 0.326955 0.300000 0.600000 0.000000
0.046505 0.209767 -0.325555 0.300000 0.600000 0.000000
0.248377 -0.257064 -0.219801 0.300000 0.600000 0.000000
-0.311010 0.236389 0.122390 0.300000 0.600000 0.000000
-0.135344 -0.678091 -0.152186 0.300000 0.600000 0.000000
-0.306365 -0.054053 0.135976 0.300000 0.600000 0.000000
0.310191 -0.435155 -0.129857 0.300000 0.600000 0.000000
0.159605 -0.348603 0.303162 0.300000 0.600000 0.000000
0.337471 0.351045 0.007590 0.300000 0.600000 0.000000
-0.318710 0.108074 0.093723 0.300000 0.600000 0.000000
-0.049470 -0.015753 0.338416 0.300000 0.600000 0.000000
0.037257 0.078919 -0.326407 0.300000 0.600000 0.000000
0.315893 0.157929 -0.117335 0.300000 0.600000 0.000000
-0.283982 -0.026357 0.176764 0.300000 0.600000 0.000000
0.184272 -0.658613 -0.235370 0.300000 0.600000 0.000000
0.087307 -0.664232 0.289421 0.300000 0.600000 0.000000
0.019594 -0.678091 -0.113383 0.300000 0.600000 0.000000
-0.002445 -0.003549 -0.326690 0.300000 0.600000 0.000000
0.313135 -0.638138 0.085890 0.300000 0.600000 0.000000
0.146948 -0.018439 -0.295680 0.300000 0.600000 0.000000
0.322037 0.356367 0.107896 0.300000 0.600000 0.000000
0.207456 0.259776 0.274756 0.300000 0.600000 0.000000
-0.323664 0.021204 0.075098 0.300000 0.600000 0.000000
0.153999 0.366050 0.304981 0.300000 0.600000 0.000000
-0.241712 -0.495416 -0.219313 0.300000 0.600000 0.000000
-0.134199 0.611941 0.135459 0.300000 0.600000 0.000000
0.081994 0.899605 -0.025027 0.300000 0.000000 0.600000
0.012600 0.681777 0.083725 0.600000 0.000000 0.300000
0.278917 0.509086 -0.074378 0.300000 0.600000 0.000000
-0.319853 -0.123813 0.089389 0.300000 0.600000 0.000000
0.303613 0.134801 0.156722 0.300000 0.600000 0.000000
-0.319764 0.203039 -0.074787 0.300000 0.600000 0.000000
-0.330069 0.273045 -0.010236 0.300000 0.600000 0.000000
-0.019167 0.664692 -0.005746 0.600000 0.000000 0.300000
0.055669 -0.004323 -0.324188 0.300000 0.600000 0.000000
0.222020 -0.650640 0.227390 0.300000 0.600000 0.000000
-0.089356 -0.311886 -0.313439 0.300000 0.600000 0.000000
-0.222373 0.367778 0.251006 0.300000 0.600000 0.000000
-0.219715 -0.041033 0.256217 0.300000 0.600000 0.000000
0.128426 -0.528810 -0.304530 0.300000 0.600000 0.000000
-0.015249 0.969507 -0.095293 0.300000 0.000000 0.600000
0.309739 -0.513924 -0.130696 0.300000 0.600000 0.000000
0.023746 -0.019189 -0.326685 0.300000 0.600000 0.000000
-0.003053 0.972993 0.070740 0.300000 0.000000 0.600000
-0.227772 -0.420053 -0.233251 0.300000 0.600000 0.000000
-0.270581 0.311137 -0.185007 0.300000 0.600000 0.000000
0.158899 -0.678091 -0.032461 0.300000 0.600000 0.000000
0.158812 -0.678091 -0.152568 0.300000 0.600000 0.000000
-0.215409 0.035069 0.260522 0.300000 0.600000 0.000000
0.032098 0.717682 0.038100 0.300000 0.000000 0.600000
-0.038426 0.073502 0.340457 0.300000 0.600000 0.000000
-0.006602 0.537876 -0.260116 0.300000 0.600000 0.000000
0.210623 0.477302 0.230072 0.300000 0.600000 0.000000
0.117060 0.288496 0.323055 0.300000 0.600000 0.000000
-0.173635 -0.415488 0.290645 0.300000 0.600000 0.000000
0.180493 0.484778 0.251662 0.300000 0.600000 0.000000
0.132931 -0.653480 0.287376 0.300000 0.600000 0.000000
0.102963 -0.303324 -0.311968 0.300000 0.600000 0.000000
0.236943 -0.677438 -0.098978 0.300000 0.600000 0.000000
-0.232328 0.333191 0.243236 0.300000 0.600000 0.000000
-0.151566 0.168422 0.303394 0.300000 0.600000 0.000000
-0.193114 0.074330 0.279265 0.300000 0.600000 0.000000
-0.002700 -0.678091 -0.089727 0.300000 0.600000 0.000000
0.276174 -0.673959 0.029239 0.300000 0.600000 0.000000
0.168242 -0.418963 0.298034 0.300000 0.600000 0.000000
0.044749 -0.660114 -0.290833 0.300000 0.600000 0.000000
0.016632 -0.613829 0.337608 0.300000 0.600000 0.000000
0.076256 0.910503 -0.227235 0.300000 0.000000 0.600000
-0.290232 0.322750 -0.150851 0.300000 0.600000 0.000000
0.183994 0.916261 -0.331528 0.300000 0.000000 0.600000
0.045755 -0.541383 0.340202 0.300000 0.600000 0.000000
-0.059445 -0.055001 -0.321367 0.300000 0.600000 0.000000
0.338209 0.000717 -0.012747 0.300000 0.600000 0.000000
-0.123585 0.642140 0.037139 0.300000 0.600000 0.000000
-0.028539 0.148471 -0.326462 0.300000 0.600000 0.000000
0.337444 -0.546038 0.045922 0.300000 0.600000 0.000000
-0.176633 -0.605485 -0.271515 0.300000 0.600000 0.000000
0.302936 0.097135 -0.143102 0.300000 0.600000 0.000000
0.212747 0.199687 0.270692 0.300000 0.600000 0.000000
0.144063 0.947888 -0.317633 0.300000 0.000000 0.600000
0.108981 0.910854 -0.277522 0.300000 0.000000 0.600000
0.177218 -0.129429 -0.278379 0.300000 0.600000 0.000000
-0.258339 0.466990 -0.154571 0.300000 0.600000 0.000000
-0.107507 0.297766 0.323444 0.300000 0.600000 0.000000
-0.135151 -0.678091 0.007720 0.300000 0.600000 0.000000
0.046833 -0.678091 0.089631 0.300000 0.600000 0.000000
0.054207 0.107379 0.339335 0.300000 0.600000 0.000000
0.275077 -0.455046 0.205217 0.300000 0.600000 0.000000
-0.275440 -0.545556 -0.176627 0.300000 0.600000 0.000000
0.043895 -0.643339 0.322109 0.300000 0.600000 0.000000
-0.223863 -0.677899 -0.068975 0.300000 0.600000 0.000000
0.136509 0.910855 -0.219253 0.300000 0.000000 0.600000
0.010299 -0.212947 0.341397 0.300000 0.600000 0.000000
0.112517 0.960400 -0.100439 0.300000 0.000000 0.600000
-0.235868 0.153588 0.240062 0.300000 0.600000 0.000000
0.224304 0.541352 -0.140482 0.300000 0.600000 0.000000
0.214374 0.372498 0.266437 0.300000 0.600000 0.000000
-0.326304 -0.412525 0.065219 0.300000 0.600000 0.000000
0.325949 -0.086077 -0.082238 0.300000 0.600000 0.000000
0.249025 0.464036 0.199131 0.300000 0.600000 0.000000
0.092699 -0.483833 0.329612 0.300000 0.600000 0.000000
-0.124327 0.041821 -0.303035 0.300000 0.600000 0.000000
-0.328799 -0.031772 0.051378 0.300000 0.600000 0.000000
0.291316 0.471020 -0.101834 0.300000 0.600000 0.000000
-0.283562 0.221996 0.177491 0.300000 0.600000 0.000000
-0.038737 -0.678091 -0.187172 0.300000 0.600000 0.000000
-0.065406 0.916832 0.055189 0.300000 0.000000 0.600000
-0.265897 -0.406706 0.207288 0.300000 0.600000 0.000000
0.015549 0.665023 0.023900 0.600000 0.000000 0.300000
-0.270418 -0.059947 0.200229 0.300000 0.600000 0.000000
0.085860 0.897040 0.026836 0.300000 0.000000 0.600000
0.102822 0.188230 -0.312005 0.300000 0.600000 0.000000
0.024272 -0.671148 -0.273392 0.300000 0.600000 0.000000
0.303011 0.460512 -0.077594 0.300000 0.600000 0.000000
0.016771 0.597673 0.215828 0.300000 0.600000 0.000000
-0.017371 -0.561998 0.341589 0.300000 0.600000 0.000000
0.049103 -0.168349 0.340194 0.300000 0.600000 0.000000
0.109944 0.647510 -0.040377 0.300000 0.600000 0.000000
0.338062 -0.216706 -0.009612 0.300000 0.600000 0.000000
-0.052969 0.577154 0.232602 0.300000 0.600000 0.000000
0.076709 -0.215822 -0.318941 0.300000 0.600000 0.000000
-0.201165 0.223082 0.273226 0.300000 0.600000 0.000000
-0.024587 0.234191 -0.326674 0.300000 0.600000 0.000000
0.311594 0.183091 0.141925 0.300000 0.600000 0.000000
0.090379 0.316103 -0.315284 0.300000 0.600000 0.000000
0.038378 -0.052867 -0.326304 0.300000 0.600000 0.000000
0.319853 0.412367 -0.071884 0.300000 0.600000 0.000000
-0.023980 -0.649167 0.318423 0.300000 0.600000 0.000000
-0.319914 -0.444188 0.089158 0.300000 0.600000 0.000000
-0.074769 -0.423862 0.332176 0.300000 0.600000 0.000000
0.180881 0.324501 -0.276119 0.300000 0.600000 0.000000
0.121109 -0.321342 -0.307044 0.300000 0.600000 0.000000
-0.065496 0.368891 -0.317964 0.300000 0.600000 0.000000
0.078070 0.910505 -0.166447 0.300000 0.000000 0.600000
-0.039745 0.973730 -0.013376 0.300000 0.000000 0.600000
0.008666 0.485623 0.307153 0.300000 0.600000 0.000000
-0.238688 0.392658 0.230526 0.300000 0.600000 0.000000
0.056733 -0.429987 -0.324009 0.300000 0.600000 0.000000
-0.042328 0.606158 0.198935 0.300000 0.600000 0.000000
-0.231843 -0.338820 -0.229181 0.300000 0.600000 0.000000
0.189108 -0.511123 -0.271504 0.300000 0.600000 0.000000
-0.033233 0.054525 -0.326029 0.300000 0.600000 0.000000
-0.179710 -0.612863 0.282463 0.300000 0.600000 0.000000
-0.311228 -0.605610 -0.098261 0.300000 0.600000 0.000000
0.267447 -0.139089 -0.200542 0.300000 0.600000 0.000000
0.337068 0.218414 -0.035094 0.300000 0.600000 0.000000
0.251630 0.022901 -0.217534 0.300000 0.600000 0.000000
0.337879 -0.125295 0.018802 0.300000 0.600000 0.000000
-0.135610 0.628616 0.085853 0.300000 0.600000 0.000000
0.165795 -0.258365 0.299883 0.300000 0.600000 0.000000
0.291414 0.114563 0.176608 0.300000 0.600000 0.000000
0.062538 -0.121180 0.337636 0.300000 0.600000 0.000000
0.132181 0.347136 -0.302523 0.300000 0.600000 0.000000
0.130514 -0.316737 0.318714 0.300000 0.600000 0.000000
-0.143509 0.021830 0.308045 0.300000 0.600000 0.000000
-0.185139 0.503583 0.228184 0.300000 0.600000 0.000000
-0.039787 0.481179 -0.292369 0.300000 0.600000 0.000000
0.268384 0.414603 0.199555 0.300000 0.600000 0.000000
0.113978 -0.678091 0.098819 0.300000 0.600000 0.000000
0.167151 0.951943 -0.272415 0.300000 0.000000 0.600000
-0.051440 -0.199203 0.338046 0.300000 0.600000 0.000000
-0.041647 -0.305785 -0.325177 0.300000 0.600000 0.000000
0.297968 0.426210 -0.127785 0.300000 0.600000 0.000000
-0.271530 -0.046304 -0.183383 0.300000 0.600000 0.000000
-0.188149 -0.227167 -0.267355 0.300000 0.600000 0.000000
0.223839 -0.594100 0.259348 0.300000 0.600000 0.000000
0.048079 -0.557989 -0.325410 0.300000 0.600000 0.000000
0.311846 0.467378 0.019684 0.300000 0.600000 0.000000
0.099616 0.651388 0.057520 0.300000 0.600000 0.000000
0.182445 -0.287266 0.290270 0.300000 0.600000 0.000000
0.070304 0.972960 0.007390 0.300000 0.000000 0.600000
-0.298747 -0.007771 0.150923 0.300000 0.600000 0.000000
-0.033351 0.594928 -0.201306 0.300000 0.600000 0.000000
0.336894 0.336087 -0.033432 0.300000 0.600000 0.000000
-0.230811 0.574423 0.020996 0.300000 0.600000 0.000000
0.047410 0.910728 -0.076583 0.300000 0.000000 0.600000
0.160037 -0.624281 -0.278983 0.300000 0.600000 0.000000
-0.288200 -0.631073 -0.132942 0.300000 0.600000 0.000000
-0.152436 -0.255663 -0.287982 0.300000 0.600000 0.000000
-0.233429 -0.219766 -0.227595 0.300000 0.600000 0.000000
-0.064765 -0.591964 0.334105 0.300000 0.600000 0.000000
-0.221092 -0.261362 0.254840 0.300000 0.600000 0.000000
-0.312173 -0.209705 -0.103211 0.300000 0.600000 0.000000
-0.030352 -0.569964 -0.326295 0.300000 0.600000 0.000000
0.173972 -0.531002 -0.280254 0.300000 0.600000 0.000000
0.046830 0.182536 0.340266 0.300000 0.600000 0.000000
0.338214 -0.395266 0.013467 0.300000 0.600000 0.000000
-0.096730 0.461126 0.302095 0.300000 0.600000 0.000000
-0.322897 -0.245973 -0.062995 0.300000 0.600000 0.000000
0.030228 0.847888 -0.017740 0.300000 0.000000 0.600000
0.288057 0.504063 -0.051649 0.300000 0.600000 0.000000
0.129428 0.199632 0.318923 0.300000 0.600000 0.000000
-0.056364 -0.338441 0.337095 0.300000 0.600000 0.000000
0.207314 0.282641 -0.260137 0.300000 0.600000 0.000000
0.203482 -0.361999 0.277716 0.300000 0.600000 0.000000
0.198030 -0.394356 0.281163 0.300000 0.600000 0.000000
-0.237922 -0.066899 0.238008 0.300000 0.600000 0.000000
-0.071385 -0.348161 -0.318170 0.300000 0.600000 0.000000
-0.102597 0.068774 -0.309890 0.300000 0.600000 0.000000
0.248900 -0.618288 -0.212272 0.300000 0.600000 0.000000
0.114218 0.003397 0.323787 0.300000 0.600000 0.000000
-0.234950 0.071047 0.240980 0.300000 0.600000 0.000000
-0.192620 0.276761 -0.264708 0.300000 0.600000 0.000000
-0.002568 -0.490835 -0.326690 0.300000 0.600000 0.000000
-0.061900 -0.678091 0.189801 0.300000 0.600000 0.000000
-0.320858 0.382717 0.072683 0.300000 0.600000 0.000000
-0.222371 0.449120 -0.211581 0.300000 0.600000 0.000000
-0.112980 0.594917 -0.169674 0.300000 0.600000 0.000000
-0.150461 -0.454368 -0.289121 0.300000 0.600000 0.000000
-0.128081 -0.066922 0.315940 0.300000 0.600000 0.000000
0.171157 -0.403239 -0.281880 0.300000 0.600000 0.000000
-0.073420 0.471629 0.303551 0.300000 0.600000 0.000000
-0.317677 0.151046 0.097643 0.300000 0.600000 0.000000
0.078280 0.932883 -0.244760 0.300000 0.000000 0.600000
0.044235 0.910854 -0.119857 0.300000 0.000000 0.600000
0.146383 0.069403 0.310310 0.300000 0.600000 0.000000
0.089648 0.222137 0.330340 0.300000 0.600000 0.000000
-0.202411 -0.660141 -0.209580 0.300000 0.600000 0.000000
-0.103996 0.627047 -0.114996 0.300000 0.600000 0.000000
-0.048669 0.714678 -0.042177 0.600000 0.000000 0.300000
-0.017577 0.868208 0.042794 0.300000 0.000000 0.600000
0.301527 0.031966 0.160336 0.300000 0.600000 0.000000
0.138411 0.968269 -0.223176 0.300000 0.000000 0.600000
-0.058295 0.693667 0.063792 0.600000 0.000000 0.300000
0.338163 -0.088683 -0.020293 0.300000 0.600000 0.000000
0.306536 0.387021 0.143468 0.300000 0.600000 0.000000
0.327665 -0.017031 -0.074916 0.300000 0.600000 0.000000
-0.010713 0.703068 0.046057 0.300000 0.000000 0.600000
-0.244824 -0.663790 -0.151199 0.300000 0.600000 0.000000
0.132385 -0.212109 -0.303077 0.300000 0.600000 0.000000
-0.001054 0.850134 0.072980 0.300000 0.000000 0.600000
0.314981 -0.500365 0.134885 0.300000 0.600000 0.000000
0.065089 0.853405 0.039555 0.300000 0.000000 0.600000
0.337880 -0.549246 0.002071 0.300000 0.600000 0.000000
-0.293123 -0.241485 -0.146016 0.300000 0.600000 0.000000
0.162357 0.915914 -0.347702 0.300000 0.000000 0.600000
-0.207429 0.589885 0.059654 0.300000 0.600000 0.000000
0.153898 0.310478 0.306741 0.300000 0.600000 0.000000
0.334620 0.278748 -0.049574 0.300000 0.600000 0.000000
0.158333 -0.678091 -0.124298 0.300000 0.600000 0.000000
-0.312092 -0.299837 -0.103505 0.300000 0.600000 0.000000
0.079937 0.254565 0.332610 0.300000 0.600000 0.000000
0.093477 -0.664991 -0.272077 0.300000 0.600000 0.000000
-0.123167 0.632327 -0.077083 0.300000 0.600000 0.000000
-0.143215 0.128568 -0.293301 0.300000 0.600000 0.000000
-0.126786 0.586655 0.186268 0.300000 0.600000 0.000000
0.234491 -0.450153 0.249581 0.300000 0.600000 0.000000
-0.314908 0.088676 -0.093121 0.300000 0.600000 0.000000
-0.308140 -0.506168 -0.116231 0.300000 0.600000 0.000000
0.295885 -0.420512 0.170004 0.300000 0.600000 0.000000
-0.118656 -0.678091 -0.108438 0.300000 0.600000 0.000000
-0.128328 0.575981 -0.185363 0.300000 0.600000 0.000000
-0.290972 -0.227263 0.164656 0.300000 0.600000 0.000000
0.265362 -0.429783 -0.202486 0.300000 0.600000 0.000000
0.094377 -0.557791 -0.314261 0.300000 0.600000 0.000000
0.280088 -0.223358 0.197387 0.300000 0.600000 0.000000
0.027776 -0.678091 -0.224679 0.300000 0.600000 0.000000
-0.201254 0.600035 -0.003209 0.300000 0.600000 0.000000
-0.329412 0.123267 0.044733 0.300000 0.600000 0.000000
0.109325 0.910854 -0.313075 0.300000 0.000000 0.600000
0.019805 0.964010 -0.168036 0.300000 0.000000 0.600000
0.041897 -0.635501 -0.312419 0.300000 0.600000 0.000000
-0.282707 0.386676 -0.156325 0.300000 0.600000 0.000000
0.058499 -0.169456 -0.323713 0.300000 0.600000 0.000000
0.273381 -0.518730 -0.192744 0.300000 0.600000 0.000000
-0.052825 0.634776 0.143323 0.300000 0.600000 0.000000
-0.009924 0.848157 -0.005088 0.300000 0.000000 0.600000
0.196508 0.539074 -0.177101 0.300000 0.600000 0.000000
-0.301089 -0.381409 -0.131660 0.300000 0.600000 0.000000
0.164712 0.139069 0.299752 0.300000 0.600000 0.000000
0.186755 -0.678091 0.050288 0.300000 0.600000 0.000000
-0.083458 0.131776 0.329901 0.300000 0.600000 0.000000
0.029287 0.717411 -0.056682 0.600000 0.000000 0.300000
-0.027132 -0.026418 -0.326592 0.300000 0.600000 0.000000
-0.143124 -0.674016 -0.221452 0.300000 0.600000 0.000000
-0.305025 -0.452789 -0.123799 0.300000 0.600000 0.000000
0.096567 0.620068 0.156914 0.300000 0.600000 0.000000
-0.103028 -0.073386 -0.309771 0.300000 0.600000 0.000000
-0.257214 -0.042611 0.218424 0.300000 0.600000 0.000000
-0.307462 0.023723 0.133121 0.300000 0.600000 0.000000
0.326304 0.424755 -0.021694 0.300000 0.600000 0.000000
0.163974 0.606385 -0.106203 0.300000 0.600000 0.000000
0.217956 -0.128708 0.266102 0.300000 0.600000 0.000000
0.235265 -0.077868 0.248807 0.300000 0.600000 0.000000
0.317075 -0.119203 -0.113956 0.300000 0.600000 0.000000
0.186718 -0.158890 0.287798 0.300000 0.600000 0.000000
0.005899 0.496079 -0.287038 0.300000 0.600000 0.000000
-0.182242 0.612891 0.018163 0.300000 0.600000 0.000000
0.134755 0.511253 0.261500 0.300000 0.600000 0.000000
-0.291305 -0.285064 -0.149166 0.300000 0.600000 0.000000
0.186860 0.944760 -0.341848 0.300000 0.000000 0.600000
-0.197708 0.323259 0.275730 0.300000 0.600000 0.000000
-0.074578 0.645639 -0.086072 0.300000 0.600000 0.000000
0.086515 0.569577 0.233480 0.300000 0.600000 0.000000
0.294308 -0.650497 0.118852 0.300000 0.600000 0.000000
0.159157 0.201996 -0.288807 0.300000 0.600000 0.000000
0.328322 0.063041 0.086656 0.300000 0.600000 0.000000
-0.330061 -0.454999 0.036018 0.300000 0.600000 0.000000
0.158788 -0.077571 0.303675 0.300000 0.600000 0.000000
0.068967 -0.553926 0.335870 0.300000 0.600000 0.000000
-0.259767 0.528968 -0.066070 0.300000 0.600000 0.000000
-0.315579 -0.004120 -0.090618 0.300000 0.600000 0.000000
-0.206268 -0.324880 -0.254367 0.300000 0.600000 0.000000
0.310048 -0.550020 -0.130123 0.300000 0.600000 0.000000
-0.275788 -0.373939 0.190947 0.300000 0.600000 0.000000
-0.315096 -0.013290 0.107312 0.300000 0.600000 0.000000
0.070348 0.612486 -0.168179 0.300000 0.600000 0.000000
0.136915 0.165487 0.315731 0.300000 0.600000 0.000000
-0.037242 -0.175053 0.340313 0.300000 0.600000 0.000000
-0.044801 0.564680 -0.232680 0.300000 0.600000 0.000000
0.091524 -0.075559 0.329922 0.300000 0.600000 0.000000
0.080768 0.910947 -0.278136 0.300000 0.000000 0.600000
-0.029614 0.402267 0.334209 0.300000 0.600000 0.000000
-0.145161 -0.159001 -0.292180 0.300000 0.600000 0.000000
-0.330061 -0.047358 -0.017589 0.300000 0.600000 0.000000
-0.038214 0.330781 -0.325361 0.300000 0.600000 0.000000
-0.051114 -0.239065 0.338457 0.300000 0.600000 0.000000
0.018528 0.640665 -0.126085 0.300000 0.600000 0.000000
-0.318255 0.193010 0.095451 0.300000 0.600000 0.000000
0.338193 0.207309 -0.004361 0.300000 0.600000 0.000000
0.334807 -0.420935 -0.048833 0.300000 0.600000 0.000000
-0.200701 0.181377 -0.259075 0.300000 0.600000 0.000000
-0.135548 -0.678091 0.164689 0.300000 0.600000 0.000000
-0.138463 0.022943 -0.295860 0.300000 0.600000 0.000000
-0.114121 0.641883 -0.049373 0.300000 0.600000 0.000000
0.106545 -0.350526 -0.311008 0.300000 0.600000 0.000000
-0.074465 -0.678091 0.073991 0.300000 0.600000 0.000000
0.050361 0.973738 -0.126474 0.300000 0.000000 0.600000
0.219579 0.574062 -0.088607 0.300000 0.600000 0.000000
-0.303237 -0.110077 0.142377 0.300000 0.600000 0.000000
-0.209978 -0.118671 -0.251032 0.300000 0.600000 0.000000
-0.024970 0.939344 -0.111176 0.300000 0.000000 0.600000
0.024641 -0.678091 0.233719 0.300000 0.600000 0.000000
-0.241377 0.478252 0.187118 0.300000 0.600000 0.000000
0.266879 -0.434246 0.216128 0.300000 0.600000 0.000000
-0.290212 0.274891 0.165972 0.300000 0.600000 0.000000
0.319504 -0.293057 0.121074 0.300000 0.600000 0.000000
0.210460 -0.482702 0.272639 0.300000 0.600000 0.000000
-0.217594 0.109803 -0.243428 0.300000 0.600000 0.000000
0.195586 0.048753 -0.267759 0.300000 0.600000 0.000000
0.123952 0.609494 -0.142325 0.300000 0.600000 0.000000
0.294642 0.227017 -0.157343 0.300000 0.600000 0.000000
0.089380 -0.485042 -0.315578 0.300000 0.600000 0.000000
0.269481 0.132449 -0.198168 0.300000 0.600000 0.000000
0.114908 -0.678091 0.048124 0.300000 0.600000 0.000000
0.326230 -0.615851 0.076493 0.300000 0.600000 0.000000
-0.330074 -0.153359 0.018841 0.300000 0.600000 0.000000
-0.270735 -0.010344 0.199680 0.300000 0.600000 0.000000
0.000261 -0.655365 0.312760 0.300000 0.600000 0.000000
-0.076536 -0.678091 -0.101306 0.300000 0.600000 0.000000
-0.270736 -0.352176 -0.184756 0.300000 0.600000 0.000000
0.091298 -0.513538 0.329981 0.300000 0.600000 0.000000
-0.150387 -0.678091 0.109291 0.300000 0.600000 0.000000
-0.315088 -0.091908 -0.092448 0.300000 0.600000 0.000000
-0.127560 -0.678091 0.125280 0.300000 0.600000 0.000000
-0.038533 0.682265 -0.066882 0.600000 0.000000 0.300000
0.172805 0.282111 -0.280928 0.300000 0.600000 0.000000
-0.094852 -0.015148 0.326874 0.300000 0.600000 0.000000
-0.133616 0.557601 -0.202949 0.300000 0.600000 0.000000
0.251934 -0.031239 0.231865 0.300000 0.600000 0.000000
0.018196 0.831768 -0.031461 0.300000 0.000000 0.600000
-0.283134 -0.199474 0.178233 0.300000 0.600000 0.000000
0.209673 0.161163 -0.258403 0.300000 0.600000 0.000000
0.073418 0.669534 0.061651 0.600000 0.000000 0.300000
-0.169018 0.401247 0.286083 0.300000 0.600000 0.000000
0.105567 -0.260866 0.326068 0.300000 0.600000 0.000000
-0.103795 -0.678091 0.115879 0.300000 0.600000 0.000000
0.082127 0.969024 -0.266805 0.300000 0.000000 0.600000
-0.158827 0.590080 -0.137322 0.300000 0.600000 0.000000
0.119934 -0.678091 -0.184997 0.300000 0.600000 0.000000
0.023953 -0.261283 0.341498 0.300000 0.600000 0.000000
0.338046 0.054862 -0.024492 0.300000 0.600000 0.000000
-0.229183 0.525979 0.155390 0.300000 0.600000 0.000000
0.284432 0.203898 0.190067 0.300000 0.600000 0.000000
-0.079907 -0.525279 0.330830 0.300000 0.600000 0.000000
0.036157 0.910854 -0.158629 0.300000 0.000000 0.600000
0.313982 -0.151558 0.137041 0.300000 0.600000 0.000000
0.219687 0.353840 -0.248032 0.300000 0.600000 0.000000
0.184643 0.330627 0.288446 0.300000 0.600000 0.000000
0.057595 0.666027 -0.004743 0.600000 0.000000 0.300000
0.296033 -0.088658 0.169350 0.300000 0.600000 0.000000
-0.062998 -0.678091 -0.057826 0.300000 0.600000 0.000000
0.047427 0.066108 0.340374 0.300000 0.600000 0.000000
-0.323369 0.121629 -0.061237 0.300000 0.600000 0.000000
0.048905 0.966617 -0.213832 0.300000 0.000000 0.600000
-0.322758 -0.331430 -0.063513 0.300000 0.600000 0.000000
-0.232134 -0.677420 0.103202 0.300000 0.600000 0.000000
-0.075576 -0.157557 -0.317058 0.300000 0.600000 0.000000
-0.327570 -0.532932 -0.044094 0.300000 0.600000 0.000000
0.301946 0.200895 0.159742 0.300000 0.600000 0.000000
-0.324447 -0.208303 -0.057209 0.300000 0.600000 0.000000
0.013916 0.427622 -0.314258 0.300000 0.600000 0.000000
0.133305 0.037789 -0.302628 0.300000 0.600000 0.000000
0.080632 0.974325 -0.117167 0.300000 0.000000 0.600000
0.138899 -0.068379 -0.299897 0.300000 0.600000 0.000000
0.301394 -0.628943 0.140547 0.300000 0.600000 0.000000
-0.122052 -0.402867 0.318101 0.300000 0.600000 0.000000
0.333565 0.031553 0.068506 0.300000 0.600000 0.000000
0.166093 0.627798 0.012301 0.300000 0.600000 0.000000
0.163844 -0.374264 0.300675 0.300000 0.600000 0.000000
-0.029484 0.463522 0.316252 0.300000 0.600000 0.000000
-0.061293 -0.229923 -0.320873 0.300000 0.600000 0.000000
0.322917 -0.527225 0.107984 0.300000 0.600000 0.000000
-0.128873 0.560534 0.217437 0.300000 0.600000 0.000000
-0.102397 0.224398 0.324290 0.300000 0.600000 0.000000
0.189902 -0.673038 0.210220 0.300000 0.600000 0.000000
-0.323335 0.318386 -0.061144 0.300000 0.600000 0.000000
0.334642 0.245776 0.063900 0.300000 0.600000 0.000000
0.326708 0.131157 -0.076854 0.300000 0.600000 0.000000
-0.077240 0.505291 -0.270171 0.300000 0.600000 0.000000
-0.262030 0.502369 -0.112590 0.300000 0.600000 0.000000
-0.089648 -0.043233 0.328268 0.300000 0.600000 0.000000
-0.002377 0.315409 0.341564 0.300000 0.600000 0.000000
0.159826 0.034323 -0.288421 0.300000 0.600000 0.000000
0.174801 -0.589443 -0.279270 0.300000 0.600000 0.000000
-0.266525 -0.506669 0.206388 0.300000 0.600000 0.000000
-0.022078 -0.471880 -0.326677 0.300000 0.600000 0.000000
0.097867 -0.678091 -0.003085 0.300000 0.600000 0.000000
0.075587 -0.678091 -0.163398 0.300000 0.600000 0.000000
0.315584 0.115631 0.131899 0.300000 0.600000 0.000000
0.099695 -0.354429 0.327752 0.300000 0.600000 0.000000
0.151226 0.421493 0.296033 0.300000 0.600000 0.000000
-0.075799 -0.374876 0.331906 0.300000 0.600000 0.000000
-0.134573 0.262162 -0.297955 0.300000 0.600000 0.000000
-0.128478 0.312650 0.315903 0.300000 0.600000 0.000000
0.041660 0.629115 -0.146623 0.300000 0.600000 0.000000
0.145689 -0.678091 0.142591 0.300000 0.600000 0.000000
-0.074640 0.442563 -0.299765 0.300000 0.600000 0.000000
0.335428 0.097124 -0.042725 0.300000 0.600000 0.000000
-0.303856 0.451299 0.072711 0.300000 0.600000 0.000000
0.116570 0.619768 0.143475 0.300000 0.600000 0.000000
0.286064 -0.556867 0.187130 0.300000 0.600000 0.000000
-0.133074 0.193811 0.313434 0.300000 0.600000 0.000000
-0.270925 -0.007255 -0.184429 0.300000 0.600000 0.000000
0.045452 -0.677691 0.249685 0.300000 0.600000 0.000000
0.186667 -0.584109 0.287081 0.300000 0.600000 0.000000
-0.202787 0.551089 0.160551 0.300000 0.600000 0.000000
0.103485 -0.444509 0.326740 0.300000 0.600000 0.000000
0.329535 -0.446339 0.082914 0.300000 0.600000 0.000000
-0.214535 -0.108743 0.261397 0.300000 0.600000 0.000000
0.338214 -0.273444 -0.008379 0.300000 0.600000 0.000000
0.303496 0.005346 0.156984 0.300000 0.600000 0.000000
-0.097450 -0.516739 -0.311271 0.300000 0.600000 0.000000
-0.039905 0.958833 0.072384 0.300000 0.000000 0.600000
0.282941 -0.647257 0.149699 0.300000 0.600000 0.000000
0.150191 0.634330 0.034534 0.300000 0.600000 0.000000
-0.059650 0.540739 0.264934 0.300000 0.600000 0.000000
0.137579 -0.291971 0.315452 0.300000 0.600000 0.000000
0.234055 0.020420 0.250017 0.300000 0.600000 0.000000
-0.121578 -0.589301 -0.303627 0.300000 0.600000 0.000000
0.089649 -0.201911 0.329955 0.300000 0.600000 0.000000
-0.307826 -0.030392 0.132078 0.300000 0.600000 0.000000
0.236468 0.349375 0.246438 0.300000 0.600000 0.000000
0.131285 0.468432 0.288907 0.300000 0.600000 0.000000
-0.088524 0.106256 0.328570 0.300000 0.600000 0.000000
0.011249 -0.678091 0.211239 0.300000 0.600000 0.000000
0.008947 -0.626974 -0.317838 0.300000 0.600000 0.000000
0.013696 -0.678091 0.020716 0.300000 0.600000 0.000000
-0.059415 -0.632372 -0.309519 0.300000 0.600000 0.000000
-0.006898 -0.168702 -0.326690 0.300000 0.600000 0.000000
-0.145820 0.633189 -0.006902 0.300000 0.600000 0.000000
0.117778 0.574509 0.213216 0.300000 0.600000 0.000000
0.226655 0.492198 -0.189098 0.300000 0.600000 0.000000
