ply
format ascii 1.0
element vertex 1277
property float x
property float y
property float z
property uchar red
property uchar green
property uchar blue
end_header
0.132950 -0.061331 -0.301601 76 153 0
0.128074 -0.282629 -0.303119 76 153 0
0.336156 -0.032934 -0.022505 76 153 0
-0.179326 -0.354781 -0.270124 76 153 0
0.035485 0.613475 0.187783 76 153 0
-0.202690 0.075772 -0.255424 76 153 0
0.225883 0.133056 0.255274 76 153 0
-0.128193 0.366873 -0.298227 76 153 0
0.222656 -0.163442 0.258500 76 153 0
0.336152 0.136473 0.042503 76 153 0
-0.001289 0.185403 -0.233499 76 153 0
-0.056967 0.666580 -0.048919 153 0 76
-0.028706 -0.115015 0.011561 76 153 0
-0.131061 -0.289360 -0.297984 76 153 0
-0.307585 -0.248665 -0.112504 76 153 0
-0.263419 0.162245 0.208319 76 153 0
-0.285721 -0.026872 0.169689 76 153 0
-0.004505 -0.009137 0.339534 76 153 0
-0.327962 -0.008318 0.051353 76 153 0
0.061059 0.085646 0.335977 76 153 0
-0.016704 -0.437780 0.135606 76 153 0
0.031920 0.563384 0.020606 153 0 76
0.209524 0.586545 -0.070592 76 153 0
0.271689 0.185403 -0.012951 76 153 0
0.237767 0.185403 -0.023838 76 153 0
-0.159361 -0.226551 0.296551 76 153 0
0.282528 0.202660 0.189312 76 153 0
0.000778 0.912933 0.090469 76 0 153
-0.056013 -0.302664 -0.320247 76 153 0
0.335758 0.341211 -0.033001 76 153 0
-0.017539 0.437648 -0.020883 76 153 0
-0.324267 -0.342836 -0.050260 76 153 0
0.013654 0.185403 -0.213301 76 153 0
-0.031644 -0.306832 0.053114 76 153 0
0.305823 -0.426007 0.148970 76 153 0
0.019900 0.185403 -0.134475 76 153 0
-0.278258 0.151453 -0.167710 76 153 0
-0.261874 -0.016770 -0.196083 76 153 0
-0.214605 0.376504 0.255580 76 153 0
0.057172 0.580024 -0.005420 153 0 76
0.121742 0.914889 -0.281375 76 0 153
-0.017761 -0.676037 -0.041845 76 153 0
0.148609 0.157770 -0.292559 76 153 0
0.257749 -0.434625 0.223412 76 153 0
-0.067011 0.578184 -0.209713 76 153 0
-0.261961 0.536990 -0.028295 76 153 0
-0.169021 -0.058360 0.290973 76 153 0
0.128275 0.613008 0.142080 76 153 0
-0.275731 0.225082 -0.172086 76 153 0
0.205220 -0.592095 0.274777 76 153 0
-0.296715 0.364049 0.148382 76 153 0
-0.036009 0.848075 -0.032508 76 0 153
-0.305399 0.210852 0.135588 76 153 0
-0.306244 0.277526 0.132432 76 153 0
-0.312414 0.438331 0.034981 76 153 0
-0.078176 -0.441383 0.125044 76 153 0
0.189749 -0.626471 0.274157 76 153 0
0.033926 0.345643 -0.324093 76 153 0
-0.183290 -0.008946 -0.267836 76 153 0
-0.017865 0.384554 -0.020610 76 153 0
-0.291612 -0.543458 -0.144583 76 153 0
-0.187172 -0.676037 0.090001 76 153 0
-0.079582 0.596093 -0.184190 76 153 0
0.085647 -0.446383 0.329391 76 153 0
-0.001528 -0.241139 -0.324634 76 153 0
-0.189962 0.361637 -0.262767 76 153 0
-0.169116 -0.499062 -0.276017 76 153 0
-0.282154 -0.247136 -0.160962 76 153 0
-0.089336 -0.194906 -0.311319 76 153 0
0.270114 -0.265817 -0.195921 76 153 0
0.031958 -0.644498 -0.305543 76 153 0
0.321549 -0.324982 -0.090771 76 153 0
0.278989 -0.300001 -0.180547 76 153 0
0.091618 0.569186 -0.215884 76 153 0
-0.002528 0.615895 0.090468 76 153 0
0.069212 0.400955 -0.312528 76 153 0
0.332760 0.265626 -0.048927 76 153 0
-0.065092 0.687045 0.053699 153 0 76
0.042190 0.388619 -0.007583 76 153 0
0.128821 0.948912 -0.292858 76 0 153
-0.249537 0.352135 0.222421 76 153 0
0.336152 -0.360978 0.044633 76 153 0
-0.169836 0.185403 -0.202887 76 153 0
-0.119981 -0.673764 0.246145 76 153 0
0.086615 0.223478 0.329132 76 153 0
0.255348 -0.676037 0.039727 76 153 0
0.336155 -0.405137 -0.009945 76 153 0
-0.058755 -0.244169 0.334416 76 153 0
-0.126393 -0.669803 -0.241194 76 153 0
0.076566 0.914889 -0.232700 76 0 153
0.066560 0.721947 0.009249 153 0 76
0.330983 0.149139 -0.055559 76 153 0
0.121000 0.516905 -0.247780 76 153 0
-0.307051 -0.383237 0.129420 76 153 0
0.120629 0.973681 -0.207150 76 0 153
0.173282 0.250846 -0.278312 76 153 0
0.336153 -0.403442 0.029884 76 153 0
-0.088507 -0.676037 0.039578 76 153 0
0.233131 0.197475 -0.233127 76 153 0
0.314193 -0.133608 -0.118229 76 153 0
0.124017 0.185403 0.004861 76 153 0
-0.300989 -0.360079 0.143243 76 153 0
0.164930 -0.624349 0.289660 76 153 0
-0.064895 0.524457 -0.258353 76 153 0
0.262116 -0.673912 0.080522 76 153 0
-0.307386 -0.562681 -0.113244 76 153 0
-0.225871 0.342887 0.246510 76 153 0
-0.247514 -0.476063 0.225502 76 153 0
0.303319 0.438060 -0.098855 76 153 0
-0.002645 -0.236297 0.339534 76 153 0
-0.324115 -0.039450 0.065716 76 153 0
0.144546 0.913217 -0.191251 76 0 153
-0.031542 0.326482 -0.324636 76 153 0
-0.301087 0.405138 0.125184 76 153 0
-0.132291 0.622602 0.108227 76 153 0
0.128966 -0.676037 -0.198471 76 153 0
0.266702 -0.302499 0.214460 76 153 0
0.162684 -0.543253 0.299333 76 153 0
-0.140399 -0.676037 -0.069310 76 153 0
-0.291671 -0.147813 0.159382 76 153 0
-0.003668 0.185403 0.051371 76 153 0
-0.277429 -0.114356 -0.169145 76 153 0
0.333104 0.185626 0.062562 76 153 0
-0.216608 -0.639998 -0.219152 76 153 0
0.160363 -0.585122 0.300672 76 153 0
0.282473 -0.580982 -0.174509 76 153 0
0.243676 -0.528981 -0.222581 76 153 0
-0.137803 -0.637680 0.292445 76 153 0
-0.141489 0.185403 0.116174 76 153 0
0.054073 -0.183191 0.337848 76 153 0
-0.224265 0.551697 -0.104064 76 153 0
-0.326117 -0.606572 0.041983 76 153 0
0.179499 -0.676037 0.045963 76 153 0
0.220357 -0.090813 0.260798 76 153 0
0.310544 -0.652002 -0.025697 76 153 0
0.256566 -0.469444 0.224594 76 153 0
0.161784 -0.618762 -0.278903 76 153 0
0.331845 -0.616074 -0.016945 76 153 0
0.020037 -0.467159 0.339535 76 153 0
-0.039711 -0.676037 0.178575 76 153 0
0.213607 0.594558 -0.009410 76 153 0
-0.058920 -0.676037 -0.128068 76 153 0
0.003468 -0.676037 -0.052849 76 153 0
0.000162 0.642057 0.134733 76 153 0
-0.153026 -0.676037 -0.111579 76 153 0
-0.296898 -0.649816 0.076768 76 153 0
-0.096726 0.185403 -0.261424 76 153 0
-0.234082 -0.260153 0.238935 76 153 0
-0.170276 -0.468244 0.290248 76 153 0
-0.156497 0.232621 0.298205 76 153 0
0.101680 0.165481 0.325097 76 153 0
0.323156 -0.229863 -0.084771 76 153 0
0.307307 0.203261 -0.131487 76 153 0
0.134823 0.046485 -0.300520 76 153 0
-0.127007 0.491901 0.271839 76 153 0
0.336154 -0.158259 0.019320 76 153 0
-0.008324 -0.127574 0.339534 76 153 0
-0.284948 -0.665549 -0.002352 76 153 0
0.289758 -0.612861 -0.155313 76 153 0
0.116653 0.973681 -0.250251 76 0 153
0.135935 -0.676037 0.019376 76 153 0
-0.267941 -0.668763 -0.071366 76 153 0
-0.061628 0.907664 -0.044258 76 0 153
-0.087418 0.103947 0.326734 76 153 0
-0.246192 0.166702 -0.211928 76 153 0
-0.000640 -0.153121 0.071492 76 153 0
0.248043 0.544746 -0.084701 76 153 0
0.029961 0.704796 -0.068166 153 0 76
-0.293906 0.262350 -0.140611 76 153 0
0.064134 -0.676037 -0.093745 76 153 0
0.330206 -0.442377 -0.058460 76 153 0
-0.173966 -0.447192 -0.273218 76 153 0
-0.239114 0.185403 -0.068817 76 153 0
-0.240120 -0.414223 -0.217999 76 153 0
0.180707 0.350074 -0.273237 76 153 0
0.301877 0.261165 -0.140893 76 153 0
0.019772 -0.066055 0.001180 76 153 0
0.266776 0.185403 0.045562 76 153 0
0.258701 0.335037 0.222178 76 153 0
-0.250483 -0.514818 0.222532 76 153 0
0.048625 -0.564021 -0.324413 76 153 0
0.308096 -0.568920 0.145035 76 153 0
-0.105106 0.645567 -0.034382 76 153 0
-0.076456 -0.113807 -0.314770 76 153 0
0.283913 0.045271 -0.172016 76 153 0
0.143693 0.948912 -0.365076 76 0 153
0.086567 -0.197385 0.329145 76 153 0
-0.255402 0.185403 -0.180180 76 153 0
0.154109 0.594206 -0.139408 76 153 0
0.214842 0.413255 0.254670 76 153 0
-0.197909 0.038756 0.274292 76 153 0
0.226294 0.354631 -0.238792 76 153 0
0.327181 -0.201327 -0.069748 76 153 0
-0.202536 -0.676037 0.017319 76 153 0
0.218503 -0.676037 -0.097593 76 153 0
-0.061505 -0.010873 0.333679 76 153 0
-0.274895 -0.432843 0.188440 76 153 0
0.315433 0.036676 0.128491 76 153 0
0.256816 -0.656846 0.172500 76 153 0
-0.015419 0.479428 0.307819 76 153 0
0.021983 0.643273 -0.115580 76 153 0
-0.326504 -0.604813 0.002267 76 153 0
-0.176224 0.106728 -0.271914 76 153 0
-0.137990 0.624540 -0.075357 76 153 0
-0.293505 -0.017205 -0.141306 76 153 0
-0.241193 0.557004 -0.038952 76 153 0
0.317791 0.267761 -0.104798 76 153 0
-0.277137 0.303106 -0.169652 76 153 0
-0.136459 -0.538946 -0.294867 76 153 0
0.231459 0.578863 0.030503 76 153 0
-0.027270 0.141575 -0.324636 76 153 0
0.008652 0.877599 -0.075568 76 0 153
0.091364 -0.676037 0.032285 76 153 0
-0.052915 -0.150224 0.335982 76 153 0
0.186121 0.613259 -0.018807 76 153 0
0.334823 0.370262 0.007747 76 153 0
-0.027917 -0.636857 -0.310817 76 153 0
-0.328013 0.106764 -0.014149 76 153 0
0.272815 0.015230 0.206133 76 153 0
0.287008 0.252282 -0.166654 76 153 0
0.291330 0.284444 0.174070 76 153 0
-0.167942 0.617177 -0.033385 76 153 0
-0.006250 -0.132620 -0.324634 76 153 0
-0.328015 -0.273752 0.029420 76 153 0
-0.328012 -0.091842 -0.022662 76 153 0
0.050188 0.910878 -0.216956 76 0 153
0.117220 0.185403 -0.181298 76 153 0
-0.057364 -0.475789 -0.319885 76 153 0
-0.028476 -0.399317 0.087096 76 153 0
-0.227411 0.575266 -0.008966 76 153 0
-0.144041 -0.438549 0.305397 76 153 0
-0.082261 -0.461115 0.136491 76 153 0
0.314107 -0.280698 0.133439 76 153 0
-0.053857 -0.187354 0.335729 76 153 0
0.044276 0.715561 0.016654 76 0 153
-0.065556 0.185403 0.266316 76 153 0
0.219067 0.394282 -0.240096 76 153 0
-0.288327 0.304073 -0.150272 76 153 0
-0.175802 0.532107 0.208895 76 153 0
0.009924 -0.576882 -0.324634 76 153 0
0.166703 -0.676037 -0.137319 76 153 0
0.306360 0.312980 0.148040 76 153 0
0.234786 0.472134 0.206380 76 153 0
0.072962 0.185403 -0.088244 76 153 0
-0.066566 0.693793 -0.036244 153 0 76
0.051333 0.626031 0.076026 76 153 0
0.236985 0.064225 0.244173 76 153 0
-0.259503 0.528437 -0.059862 76 153 0
-0.317887 -0.545864 -0.074065 76 153 0
-0.140659 -0.005062 0.307350 76 153 0
-0.327627 0.340840 -0.021805 76 153 0
-0.123241 -0.412677 -0.302235 76 153 0
0.014004 -0.216622 0.054956 76 153 0
0.147863 0.579811 0.183708 76 153 0
-0.278739 -0.642316 0.147172 76 153 0
-0.130934 -0.676037 0.003253 76 153 0
0.239883 -0.312663 0.241275 76 153 0
0.293211 -0.150090 0.170812 76 153 0
0.299463 0.349811 -0.143727 76 153 0
-0.060827 0.615624 -0.160543 76 153 0
0.236711 0.185403 0.167410 76 153 0
-0.119621 0.626533 -0.095511 76 153 0
0.199299 -0.676037 -0.115586 76 153 0
0.024536 0.956795 -0.187888 76 0 153
0.051626 -0.600706 0.337599 76 153 0
-0.238586 0.550244 0.086155 76 153 0
-0.013907 0.132775 0.017291 76 153 0
0.204549 0.185403 -0.240041 76 153 0
0.085006 0.636238 -0.011255 76 153 0
-0.244400 0.323494 -0.213719 76 153 0
0.109869 0.948912 -0.226647 76 0 153
-0.114497 0.185403 -0.126244 76 153 0
0.056962 0.247575 0.337075 76 153 0
0.267967 -0.059785 0.213195 76 153 0
-0.310029 -0.424221 0.118303 76 153 0
-0.086408 -0.650289 0.302344 76 153 0
0.328634 0.068792 0.079238 76 153 0
-0.315624 0.283500 -0.082507 76 153 0
0.045507 -0.348217 -0.324632 76 153 0
0.302150 -0.164011 0.155330 76 153 0
-0.113178 0.643649 0.042379 76 153 0
-0.291745 0.489108 -0.010768 76 153 0
-0.072814 0.376572 -0.313657 76 153 0
-0.207391 -0.608930 -0.247300 76 153 0
0.011293 -0.662071 0.302012 76 153 0
0.047420 0.936194 -0.236147 76 0 153
0.087089 0.699885 0.003365 153 0 76
0.316161 -0.179084 0.125778 76 153 0
0.318176 -0.484913 -0.103361 76 153 0
0.300293 -0.008165 0.158548 76 153 0
-0.078949 0.682777 0.007198 153 0 76
0.108829 0.185403 0.240146 76 153 0
-0.115179 -0.174507 0.319294 76 153 0
0.008199 0.861717 0.083239 76 0 153
0.076384 0.224073 -0.316973 76 153 0
-0.328016 0.175216 0.048796 76 153 0
0.225375 -0.007757 0.255781 76 153 0
-0.272709 -0.170609 -0.177320 76 153 0
0.054555 0.580024 -0.057427 76 153 0
0.052252 0.580024 0.059939 76 153 0
-0.021788 -0.155676 0.013198 76 153 0
-0.309799 -0.102108 0.119160 76 153 0
-0.093597 0.009210 0.325078 76 153 0
0.068651 0.180870 0.333944 76 153 0
-0.028476 0.820700 -0.017898 76 0 153
-0.319520 -0.254676 0.082868 76 153 0
0.275106 0.107279 -0.187273 76 153 0
0.027714 0.185403 0.290314 76 153 0
0.076584 0.657367 0.017509 153 0 76
-0.244975 -0.308161 0.228041 76 153 0
-0.328014 0.004110 0.014071 76 153 0
-0.311732 -0.277182 0.111944 76 153 0
-0.000617 0.022291 -0.022242 76 153 0
-0.188507 0.542031 -0.170293 76 153 0
-0.003344 0.848075 0.037057 76 0 153
-0.321122 -0.382531 0.076890 76 153 0
0.316121 0.359621 -0.107207 76 153 0
0.080251 -0.095704 0.330837 76 153 0
0.081518 -0.274823 -0.315597 76 153 0
-0.113816 0.133100 -0.304760 76 153 0
-0.277413 0.020390 0.184080 76 153 0
-0.076681 -0.445065 -0.314709 76 153 0
0.016956 0.003843 -0.016021 76 153 0
0.336153 -0.253644 0.024741 76 153 0
0.086767 0.278169 0.329092 76 153 0
0.235108 -0.570308 -0.231150 76 153 0
-0.003631 0.973681 0.066181 76 0 153
-0.073523 0.525101 0.270508 76 153 0
0.073205 0.263977 -0.317825 76 153 0
-0.054998 -0.213563 0.335424 76 153 0
0.151071 -0.676037 0.143079 76 153 0
0.304752 0.457213 0.085208 76 153 0
0.299556 0.022750 0.159824 76 153 0
0.288144 -0.457138 -0.164685 76 153 0
-0.138234 -0.534849 0.308751 76 153 0
-0.194002 -0.676037 -0.095302 76 153 0
0.051337 0.628753 0.155903 76 153 0
0.065259 -0.315650 -0.319954 76 153 0
0.301725 -0.086295 -0.141157 76 153 0
0.147173 -0.633614 -0.279808 76 153 0
0.198071 0.272398 -0.263998 76 153 0
0.321353 0.139109 -0.091501 76 153 0
0.153991 0.185403 0.235835 76 153 0
-0.043876 0.185403 -0.058228 76 153 0
-0.118106 0.374612 0.316764 76 153 0
-0.298022 -0.182813 -0.133482 76 153 0
0.049385 0.651034 0.095774 76 153 0
-0.225390 0.252050 0.247628 76 153 0
-0.153989 -0.676037 -0.158325 76 153 0
0.188481 -0.649864 0.257341 76 153 0
0.135462 0.280290 -0.300151 76 153 0
-0.054541 0.135982 -0.320641 76 153 0
-0.064585 -0.509082 -0.317950 76 153 0
0.017303 -0.381200 -0.324633 76 153 0
0.091339 -0.676037 0.072887 76 153 0
0.097400 -0.676037 0.108020 76 153 0
0.211363 -0.314047 0.269791 76 153 0
-0.048504 -0.676037 0.069456 76 153 0
-0.199422 0.185403 0.037731 76 153 0
-0.047963 0.185403 -0.198664 76 153 0
0.144740 0.606448 -0.124755 76 153 0
0.264412 -0.119909 -0.201842 76 153 0
-0.224728 -0.528518 -0.233389 76 153 0
0.229992 0.185403 -0.075741 76 153 0
-0.122286 0.185403 -0.058270 76 153 0
0.103023 0.910878 -0.303237 76 0 153
-0.172041 0.185403 -0.081813 76 153 0
0.273251 -0.467813 0.205378 76 153 0
-0.199569 0.537038 0.180239 76 153 0
-0.049858 0.878273 0.070928 76 0 153
0.159350 0.003415 -0.286357 76 153 0
0.209035 -0.411582 -0.257227 76 153 0
-0.306559 -0.277226 -0.116329 76 153 0
-0.021295 -0.473766 -0.324635 76 153 0
0.025955 0.702686 0.042417 76 0 153
0.051195 -0.358769 0.338619 76 153 0
-0.314915 0.335679 0.099208 76 153 0
0.276913 0.259498 0.199036 76 153 0
-0.025248 0.409065 0.332010 76 153 0
0.140808 0.582491 -0.171405 76 153 0
0.139305 0.385753 0.308703 76 153 0
0.035494 0.196431 0.010069 76 153 0
0.139560 -0.002736 0.312682 76 153 0
-0.306303 0.306065 -0.117284 76 153 0
0.300178 -0.598370 0.157481 76 153 0
0.010788 -0.070805 -0.324634 76 153 0
-0.012808 0.218062 -0.029071 76 153 0
-0.144513 -0.052372 -0.290219 76 153 0
-0.147407 -0.131307 0.303454 76 153 0
-0.271233 -0.390951 0.194784 76 153 0
0.086152 -0.055022 -0.314355 76 153 0
0.029570 -0.232093 0.339536 76 153 0
0.151941 0.185403 -0.235403 76 153 0
-0.078095 0.185403 0.231961 76 153 0
0.275317 -0.071080 -0.186908 76 153 0
0.273559 0.072733 -0.189953 76 153 0
-0.313151 0.011339 -0.091734 76 153 0
0.132229 0.497259 0.270608 76 153 0
0.336155 -0.329847 -0.013379 76 153 0
0.148136 0.185403 0.154522 76 153 0
-0.310666 -0.344000 0.115924 76 153 0
-0.038294 -0.377811 0.339532 76 153 0
0.013185 -0.195358 0.066070 76 153 0
0.000724 0.330083 0.339493 76 153 0
0.207996 -0.260109 -0.258266 76 153 0
-0.321299 -0.572882 0.076229 76 153 0
-0.289089 0.484417 -0.049944 76 153 0
0.301115 0.212509 0.157124 76 153 0
-0.269731 0.239698 -0.182477 76 153 0
0.080536 -0.513554 -0.315860 76 153 0
0.105977 0.647114 -0.038907 76 153 0
0.196941 0.444304 -0.244474 76 153 0
0.317933 -0.031591 0.119164 76 153 0
0.074256 0.910878 -0.038604 76 0 153
-0.300163 -0.405904 -0.129775 76 153 0
0.143437 0.100348 0.310444 76 153 0
0.002861 0.612504 -0.075569 76 153 0
0.291920 -0.277488 0.173048 76 153 0
-0.195156 0.306878 0.275882 76 153 0
-0.312271 -0.482584 -0.095020 76 153 0
-0.089095 0.064433 -0.311383 76 153 0
-0.307033 0.281534 -0.114562 76 153 0
0.163179 -0.281804 0.299047 76 153 0
0.210601 -0.042473 0.270553 76 153 0
-0.139337 -0.675615 0.222762 76 153 0
-0.115783 -0.390572 -0.304233 76 153 0
-0.176369 -0.668013 0.229555 76 153 0
-0.105260 0.426854 -0.294624 76 153 0
0.145742 0.357306 -0.293159 76 153 0
0.102736 0.185403 -0.201794 76 153 0
0.092273 0.172752 -0.312714 76 153 0
0.073968 0.185403 0.243339 76 153 0
0.271810 -0.202025 -0.192982 76 153 0
0.040172 0.448287 -0.010748 76 153 0
0.195836 0.185403 -0.123930 76 153 0
-0.102473 -0.676037 0.092570 76 153 0
-0.033555 0.830398 0.024653 76 0 153
-0.328013 -0.339240 -0.009688 76 153 0
-0.129862 0.185403 -0.283991 76 153 0
-0.241364 0.464527 -0.181820 76 153 0
-0.022501 0.722622 -0.024287 76 0 153
0.276077 -0.671960 -0.040778 76 153 0
0.161437 0.189007 -0.285152 76 153 0
0.333518 -0.485046 -0.046097 76 153 0
-0.114972 0.069615 0.319349 76 153 0
0.336153 0.068831 0.031923 76 153 0
0.281827 -0.255979 -0.175629 76 153 0
-0.238806 -0.155910 -0.219313 76 153 0
-0.103207 0.185403 -0.197363 76 153 0
-0.235656 0.490048 0.182989 76 153 0
-0.192613 -0.073614 -0.262454 76 153 0
-0.049462 0.185403 -0.127759 76 153 0
-0.190710 0.601966 -0.037353 76 153 0
-0.323216 0.356382 0.065657 76 153 0
0.079600 -0.353331 -0.316111 76 153 0
0.120619 -0.041494 0.320025 76 153 0
-0.073438 -0.404553 0.123502 76 153 0
0.086556 0.135867 -0.314247 76 153 0
-0.155697 -0.151558 0.298667 76 153 0
-0.147716 -0.676037 0.130656 76 153 0
0.161806 -0.293405 -0.284939 76 153 0
-0.118572 -0.676037 -0.163937 76 153 0
0.002248 0.013017 0.339534 76 153 0
-0.314586 0.193652 -0.086382 76 153 0
-0.023946 0.365133 -0.323472 76 153 0
0.167638 -0.512644 0.296473 76 153 0
-0.097586 -0.120366 -0.309108 76 153 0
-0.038410 0.185403 0.280171 76 153 0
-0.102661 0.535499 -0.239720 76 153 0
-0.328016 -0.237221 0.040695 76 153 0
0.062690 0.848075 0.011126 76 0 153
-0.155296 -0.599065 -0.283183 76 153 0
-0.072470 -0.017724 -0.315838 76 153 0
-0.095546 0.185403 0.261464 76 153 0
0.236770 -0.676037 0.110404 76 153 0
0.315480 -0.028969 -0.113422 76 153 0
0.190878 -0.127649 -0.268152 76 153 0
0.047368 -0.676037 -0.209254 76 153 0
-0.072638 0.580024 0.039825 76 153 0
-0.005490 -0.360176 0.110858 76 153 0
0.228093 0.234947 0.253064 76 153 0
-0.244307 0.216763 0.228710 76 153 0
0.032587 -0.211922 0.339536 76 153 0
-0.283484 -0.467744 -0.158659 76 153 0
0.037247 -0.676037 -0.241747 76 153 0
0.119863 0.269247 -0.305320 76 153 0
-0.304811 0.322703 0.136621 76 153 0
0.032547 0.973681 -0.156051 76 0 153
0.056798 0.658069 0.051702 153 0 76
-0.038571 -0.501566 0.339532 76 153 0
-0.122612 -0.676037 0.124738 76 153 0
0.078955 0.512225 0.279896 76 153 0
0.088533 -0.676037 0.210897 76 153 0
-0.328015 -0.309769 0.018962 76 153 0
-0.031329 -0.676037 0.016011 76 153 0
0.149245 0.910878 -0.229018 76 0 153
-0.280665 -0.357026 -0.163540 76 153 0
0.336153 0.163584 0.031360 76 153 0
-0.285722 0.228480 -0.154785 76 153 0
-0.227239 0.213167 -0.230878 76 153 0
0.005169 -0.344199 0.339534 76 153 0
0.133219 0.631330 0.084251 76 153 0
0.180155 0.241829 0.289246 76 153 0
-0.092834 0.219719 -0.310382 76 153 0
0.004043 0.365745 -0.040223 76 153 0
0.266842 0.447324 -0.164742 76 153 0
0.264027 -0.496750 -0.202227 76 153 0
-0.315605 0.241034 -0.082581 76 153 0
-0.201611 -0.083801 0.271411 76 153 0
0.304061 0.108263 -0.137110 76 153 0
-0.225376 -0.374641 -0.232741 76 153 0
-0.288914 0.430927 0.137590 76 153 0
0.336154 -0.384870 0.017650 76 153 0
0.047136 -0.502246 -0.324631 76 153 0
0.324360 -0.632323 0.052374 76 153 0
-0.277407 -0.014927 -0.169184 76 153 0
-0.246641 0.098770 0.226375 76 153 0
0.006908 0.562384 -0.236815 76 153 0
0.112533 0.910878 -0.077543 76 0 153
-0.014220 0.953489 -0.126508 76 0 153
0.006220 -0.613476 -0.321212 76 153 0
0.009576 0.337405 -0.324358 76 153 0
-0.048731 -0.029332 -0.322198 76 153 0
-0.273816 -0.537683 -0.175402 76 153 0
0.119998 0.910878 -0.166121 76 0 153
-0.280670 -0.263574 0.178438 76 153 0
0.289793 0.322175 0.176730 76 153 0
-0.238478 -0.607130 0.231683 76 153 0
0.165417 0.408196 0.289239 76 153 0
-0.286739 0.478389 -0.069671 76 153 0
-0.202359 0.505682 0.206610 76 153 0
0.035076 0.382383 0.009813 76 153 0
0.118506 -0.418296 -0.305683 76 153 0
0.327595 -0.238956 0.083114 76 153 0
0.206389 0.329294 -0.259178 76 153 0
0.054354 -0.006555 0.337773 76 153 0
-0.218616 -0.295282 0.254404 76 153 0
0.001203 -0.592868 0.339475 76 153 0
0.075786 0.649650 0.082084 76 153 0
-0.026582 0.149459 0.339533 76 153 0
0.320258 -0.104029 0.110490 76 153 0
-0.292942 0.185403 0.071495 76 153 0
-0.205766 0.185403 0.229525 76 153 0
0.095439 0.349831 0.326070 76 153 0
0.023583 0.309491 -0.324633 76 153 0
-0.031352 -0.676037 -0.190406 76 153 0
0.078681 0.318866 -0.316357 76 153 0
0.084306 -0.122943 0.329751 76 153 0
-0.079019 -0.676037 -0.188644 76 153 0
0.087089 0.644578 0.008069 153 0 76
-0.024641 -0.676037 0.248897 76 153 0
0.025513 0.413974 0.018943 153 0 76
0.309353 0.105685 0.142856 76 153 0
-0.326881 0.070742 -0.040509 76 153 0
-0.040041 0.607275 -0.179191 76 153 0
-0.248720 0.054704 -0.209400 76 153 0
-0.006276 -0.676037 0.083749 76 153 0
0.021372 0.273686 -0.040233 76 153 0
-0.328014 -0.179506 0.006417 76 153 0
0.034676 -0.194456 -0.324632 76 153 0
0.109300 -0.676037 0.052303 76 153 0
0.087089 0.870508 0.007227 76 0 153
-0.001622 0.492294 0.026882 153 0 76
-0.049829 0.185403 0.242024 76 153 0
0.336156 -0.354578 -0.031137 76 153 0
0.315039 -0.523891 -0.115069 76 153 0
-0.009942 0.789553 -0.031305 76 0 153
-0.050906 0.529956 0.273306 76 153 0
-0.126270 -0.676037 0.034382 76 153 0
0.046952 -0.671911 -0.266115 76 153 0
0.161656 -0.676037 0.178857 76 153 0
0.293753 -0.431100 -0.154968 76 153 0
-0.289366 -0.392200 0.163376 76 153 0
0.037345 0.533197 0.004141 153 0 76
0.202935 0.185403 0.222968 76 153 0
-0.022259 0.822229 0.039162 76 0 153
-0.116682 0.211186 0.318891 76 153 0
0.304303 0.225616 -0.136690 76 153 0
-0.287939 0.185403 0.139535 76 153 0
0.334082 -0.164630 0.058910 76 153 0
0.072920 0.185403 0.280907 76 153 0
0.086323 0.582759 -0.201331 76 153 0
-0.214815 -0.663512 -0.187499 76 153 0
-0.035807 -0.300143 0.114206 76 153 0
0.047233 0.973681 0.003151 76 0 153
0.009181 0.119657 -0.324634 76 153 0
0.032842 0.303903 -0.034021 76 153 0
0.314774 -0.201065 -0.116057 76 153 0
-0.250398 -0.457117 -0.207722 76 153 0
0.127221 -0.631464 -0.292296 76 153 0
0.294973 0.134349 -0.152854 76 153 0
-0.045224 -0.456759 0.173016 76 153 0
-0.008920 -0.339304 -0.324635 76 153 0
-0.166610 -0.676037 0.022755 76 153 0
-0.043403 0.241943 0.338531 76 153 0
-0.126557 0.052438 -0.300583 76 153 0
-0.254114 -0.230122 -0.204006 76 153 0
-0.324305 -0.362924 -0.050118 76 153 0
0.284200 -0.496513 -0.171517 76 153 0
0.173481 -0.469922 -0.278197 76 153 0
0.127929 0.237473 0.318067 76 153 0
-0.048433 0.665551 0.072354 153 0 76
-0.243926 -0.068080 0.229090 76 153 0
0.332431 0.000674 0.065072 76 153 0
0.012100 0.015233 0.039433 76 153 0
-0.257265 0.388976 0.209926 76 153 0
0.235865 0.378329 -0.227117 76 153 0
0.007265 0.185403 0.126191 76 153 0
0.170771 0.334858 -0.279538 76 153 0
0.169665 -0.202012 0.295302 76 153 0
0.288612 0.185403 0.140489 76 153 0
-0.263172 -0.588192 0.208747 76 153 0
-0.004819 0.043203 -0.023470 76 153 0
-0.029885 0.572233 -0.226668 76 153 0
-0.134789 0.631712 0.065826 76 153 0
-0.115666 0.185403 0.248568 76 153 0
-0.206463 0.553194 -0.132310 76 153 0
-0.299097 -0.555958 0.146519 76 153 0
-0.259457 0.185403 0.194556 76 153 0
0.196982 0.410765 0.270513 76 153 0
0.232729 0.185403 -0.044630 76 153 0
0.039537 0.486020 -0.002873 153 0 76
-0.115315 0.435610 0.303992 76 153 0
-0.318135 -0.479808 0.088040 76 153 0
-0.018553 0.580024 0.073096 76 153 0
-0.013962 0.325458 -0.028524 76 153 0
0.038307 0.292218 0.004994 76 153 0
0.186897 0.355876 0.284353 76 153 0
-0.091650 -0.067490 0.325600 76 153 0
-0.264995 0.145495 -0.190679 76 153 0
0.121114 -0.658921 -0.269997 76 153 0
0.000159 0.185403 0.266450 76 153 0
-0.005096 0.404013 -0.035396 76 153 0
-0.034694 -0.083250 0.023027 76 153 0
-0.026569 0.388159 0.335551 76 153 0
0.138857 0.924409 -0.243508 76 0 153
0.199749 0.503555 0.219313 76 153 0
0.029799 -0.441986 -0.324632 76 153 0
-0.120526 -0.551748 -0.302962 76 153 0
-0.048345 -0.473396 0.180134 76 153 0
-0.226124 -0.663485 0.191133 76 153 0
0.275173 0.185403 -0.142783 76 153 0
-0.135176 -0.573623 -0.295608 76 153 0
0.176131 0.152148 0.291569 76 153 0
0.315095 -0.391319 -0.114859 76 153 0
-0.328013 0.199551 -0.019528 76 153 0
0.290906 -0.339686 0.174803 76 153 0
0.223095 -0.547823 0.258061 76 153 0
-0.098551 0.185403 -0.084925 76 153 0
0.073072 -0.676037 0.058202 76 153 0
0.115657 0.185403 -0.036713 76 153 0
0.090841 0.927238 -0.277716 76 0 153
0.194675 -0.214377 0.280864 76 153 0
0.210796 -0.332331 0.270358 76 153 0
-0.295338 0.414727 -0.121174 76 153 0
-0.219973 -0.474994 0.253047 76 153 0
-0.122757 0.305136 -0.302365 76 153 0
-0.297997 0.031505 -0.133526 76 153 0
0.185455 -0.676037 -0.076708 76 153 0
-0.170263 -0.076757 0.290255 76 153 0
-0.009130 0.664309 -0.074960 153 0 76
-0.328013 -0.435545 -0.020199 76 153 0
-0.169777 0.347950 0.289828 76 153 0
0.181810 0.383014 0.284703 76 153 0
0.336155 0.048623 -0.009162 76 153 0
-0.008002 0.936050 -0.138902 76 0 153
0.223378 -0.394898 -0.242882 76 153 0
0.252694 0.264468 0.228466 76 153 0
-0.295599 0.463343 -0.063960 76 153 0
0.204674 0.185403 -0.098788 76 153 0
0.001831 0.185403 0.146838 76 153 0
0.299235 0.055607 0.160380 76 153 0
0.249220 0.206169 0.231939 76 153 0
0.210723 0.366253 -0.253837 76 153 0
0.111487 -0.371420 -0.307564 76 153 0
0.307227 0.381081 0.140976 76 153 0
-0.008309 0.600231 0.209813 76 153 0
0.036531 -0.043384 -0.324632 76 153 0
0.004461 0.580024 -0.074458 76 153 0
0.325285 0.057116 -0.076825 76 153 0
-0.037323 0.643036 0.124958 76 153 0
0.107819 0.543537 -0.233513 76 153 0
-0.223659 0.057764 -0.234458 76 153 0
-0.071989 0.880033 0.041753 76 0 153
0.051695 0.185403 -0.093126 76 153 0
0.144096 -0.494999 0.310064 76 153 0
-0.130995 -0.514970 0.312930 76 153 0
0.181099 -0.274943 -0.273799 76 153 0
-0.318919 0.417571 -0.007611 76 153 0
-0.041225 -0.101773 0.339115 76 153 0
0.193239 -0.676037 -0.038478 76 153 0
-0.317811 -0.453927 -0.074348 76 153 0
-0.029040 -0.224480 0.030897 76 153 0
-0.104895 0.185403 0.178631 76 153 0
-0.254716 0.527504 0.094967 76 153 0
0.072321 -0.541055 0.332961 76 153 0
0.324646 0.238391 -0.079211 76 153 0
0.026770 0.857606 -0.060712 76 0 153
0.173536 0.956656 -0.311687 76 0 153
-0.328016 0.238472 0.046190 76 153 0
0.132240 0.036313 0.316908 76 153 0
0.316254 -0.582692 0.125430 76 153 0
0.329109 0.123649 -0.062554 76 153 0
0.135699 -0.676037 0.220698 76 153 0
0.103803 -0.676037 0.015524 76 153 0
-0.091618 0.149489 -0.310707 76 153 0
0.129913 -0.676037 0.041203 76 153 0
-0.068909 0.185403 -0.298611 76 153 0
0.069565 0.185403 -0.196852 76 153 0
-0.180165 0.089559 0.284538 76 153 0
-0.013872 0.219439 0.339533 76 153 0
-0.017030 0.518670 -0.270903 76 153 0
0.229965 -0.669936 -0.161767 76 153 0
0.021315 0.165379 0.022424 76 153 0
0.161264 0.448940 -0.263394 76 153 0
0.228704 -0.341557 -0.237556 76 153 0
0.035592 0.185403 0.325332 76 153 0
0.035922 0.305496 0.339536 76 153 0
0.133570 -0.368549 -0.301244 76 153 0
-0.031909 0.128266 0.339532 76 153 0
0.300345 -0.303872 0.158458 76 153 0
0.241739 0.376483 0.236591 76 153 0
-0.262438 -0.481517 0.210018 76 153 0
0.209604 0.185403 0.041689 76 153 0
0.323726 -0.119895 0.097551 76 153 0
-0.201209 -0.369476 -0.256905 76 153 0
-0.216200 -0.095611 -0.241915 76 153 0
-0.117363 0.439842 -0.287167 76 153 0
0.075796 -0.195538 -0.317130 76 153 0
-0.187171 0.578534 0.131741 76 153 0
-0.177880 -0.162943 -0.270959 76 153 0
0.045147 0.423757 0.328503 76 153 0
0.000977 -0.676037 -0.177328 76 153 0
0.069859 0.465353 -0.292744 76 153 0
-0.292650 -0.484447 0.157686 76 153 0
0.332916 -0.585201 -0.048342 76 153 0
0.100048 -0.676037 0.128133 76 153 0
-0.180586 0.400204 0.277343 76 153 0
0.007497 0.390873 0.335093 76 153 0
0.323424 -0.506515 -0.083774 76 153 0
0.322702 -0.070516 -0.086467 76 153 0
0.080125 -0.432004 -0.315970 76 153 0
0.092705 -0.671629 -0.254576 76 153 0
0.161051 0.185403 -0.141533 76 153 0
-0.167726 -0.675150 -0.191225 76 153 0
-0.235838 -0.428552 0.237180 76 153 0
-0.025465 0.051247 0.000235 76 153 0
-0.059773 -0.476031 0.115908 76 153 0
-0.004565 0.746405 0.047762 153 0 76
-0.307744 0.185403 0.014406 76 153 0
0.314601 0.006789 -0.116703 76 153 0
-0.018287 0.300693 -0.004554 76 153 0
-0.323477 0.215768 -0.053206 76 153 0
-0.314048 0.075498 0.103296 76 153 0
-0.000412 -0.676037 0.042547 76 153 0
0.336156 0.119746 -0.017119 76 153 0
0.163050 0.185403 0.193819 76 153 0
-0.291530 0.339739 -0.144024 76 153 0
-0.076004 0.185403 -0.201736 76 153 0
-0.040160 0.170293 0.339400 76 153 0
-0.184227 0.609527 -0.001804 76 153 0
0.087478 0.625291 0.147349 76 153 0
-0.152245 -0.676037 -0.004057 76 153 0
-0.082542 -0.364339 -0.313139 76 153 0
0.164726 -0.676037 -0.020544 76 153 0
0.080659 0.866595 0.033132 76 0 153
-0.246757 0.547418 0.065090 76 153 0
0.104736 -0.135619 -0.309374 76 153 0
0.276219 0.528219 -0.009614 76 153 0
-0.006686 0.185403 0.109816 76 153 0
-0.191235 0.403138 -0.255722 76 153 0
-0.024436 0.481119 -0.292124 76 153 0
-0.295562 -0.435923 -0.137742 76 153 0
0.056278 -0.203444 0.337258 76 153 0
0.085770 0.185403 -0.138111 76 153 0
-0.007400 0.629595 -0.146420 76 153 0
0.325916 0.380481 0.079094 76 153 0
0.164225 0.914889 -0.366216 76 0 153
-0.306305 -0.052755 -0.117280 76 153 0
0.061261 0.037559 -0.321026 76 153 0
-0.029976 0.370262 0.338201 76 153 0
-0.029775 -0.661739 -0.287557 76 153 0
-0.209132 -0.404061 0.263889 76 153 0
-0.099810 0.185403 0.027527 76 153 0
-0.320892 -0.085110 -0.062854 76 153 0
0.011669 -0.152684 0.018880 76 153 0
-0.328012 -0.018722 -0.030051 76 153 0
0.333314 -0.496158 0.061778 76 153 0
0.041976 0.146158 -0.324632 76 153 0
-0.016593 0.651898 0.101759 153 0 76
-0.105824 -0.676037 -0.084752 76 153 0
0.009696 -0.119021 0.060580 76 153 0
0.209179 -0.584891 -0.257082 76 153 0
-0.171867 0.185403 -0.161721 76 153 0
-0.098124 -0.676037 0.211489 76 153 0
0.060246 0.684918 0.068680 153 0 76
-0.059649 -0.363157 0.334177 76 153 0
-0.019229 -0.386927 -0.324635 76 153 0
-0.310314 -0.611536 -0.090761 76 153 0
0.255675 -0.388619 0.225486 76 153 0
-0.040386 -0.106472 -0.324433 76 153 0
0.336152 0.309740 0.040719 76 153 0
0.014040 -0.030041 -0.324633 76 153 0
0.052083 -0.562618 0.338381 76 153 0
0.336153 0.225674 0.035738 76 153 0
0.195666 0.134056 0.280292 76 153 0
0.157792 -0.656595 -0.252139 76 153 0
0.037282 0.857679 0.032013 76 0 153
0.189073 -0.096758 -0.269194 76 153 0
0.036764 0.218237 0.008010 76 153 0
0.223256 -0.673784 0.165115 76 153 0
0.108213 0.944753 -0.342814 76 0 153
-0.259727 -0.412309 0.213287 76 153 0
0.144271 -0.676037 -0.012703 76 153 0
0.010417 -0.676037 -0.145621 76 153 0
-0.282849 -0.392233 -0.159759 76 153 0
-0.263044 0.034065 0.208968 76 153 0
0.304846 -0.538336 0.150662 76 153 0
0.039153 -0.676037 0.056629 76 153 0
0.320812 0.109862 0.108424 76 153 0
0.037161 0.480761 -0.292290 76 153 0
-0.032076 -0.453141 -0.324636 76 153 0
-0.232369 0.270893 -0.225749 76 153 0
0.177378 0.185403 -0.157985 76 153 0
0.322818 0.036347 -0.086034 76 153 0
0.302811 0.045830 -0.139275 76 153 0
-0.147394 -0.415646 0.303461 76 153 0
0.317269 -0.356081 -0.106746 76 153 0
-0.217637 -0.675123 0.147824 76 153 0
0.147493 0.427533 0.293995 76 153 0
0.017329 0.317412 -0.041406 76 153 0
0.064391 -0.520494 -0.320187 76 153 0
0.189797 0.579280 0.139591 76 153 0
-0.318261 -0.269906 -0.072669 76 153 0
0.318237 -0.608179 0.109327 76 153 0
-0.156590 0.185403 -0.117565 76 153 0
-0.011639 -0.564428 0.339533 76 153 0
-0.067679 -0.396898 0.332025 76 153 0
0.150101 0.185403 0.298355 76 153 0
-0.058182 0.444489 0.316421 76 153 0
0.314876 0.345424 0.128581 76 153 0
-0.296051 -0.058376 -0.136895 76 153 0
-0.115767 0.573335 0.208092 76 153 0
-0.170039 0.185403 0.124681 76 153 0
-0.215263 0.185403 -0.013352 76 153 0
-0.319837 -0.213152 0.081687 76 153 0
0.131836 0.185403 0.095717 76 153 0
0.143247 0.402237 -0.288301 76 153 0
0.097792 -0.297498 -0.311235 76 153 0
0.275516 0.185403 0.164227 76 153 0
0.324799 0.424785 -0.013563 76 153 0
-0.238336 0.185403 0.198984 76 153 0
0.192565 -0.676037 0.178359 76 153 0
-0.322028 -0.620943 0.031933 76 153 0
0.026242 0.454303 0.318927 76 153 0
0.290122 0.506825 -0.024895 76 153 0
-0.048952 -0.568327 -0.322138 76 153 0
0.026511 0.848075 0.055240 76 0 153
0.130015 0.923133 -0.372273 76 0 153
-0.247777 -0.508185 -0.210343 76 153 0
0.291062 -0.040196 0.174532 76 153 0
0.219678 0.122916 -0.246582 76 153 0
0.193140 -0.400562 -0.266846 76 153 0
-0.040817 0.651605 -0.079053 76 153 0
0.193378 0.040456 -0.266708 76 153 0
0.329271 0.123175 0.076863 76 153 0
-0.155720 0.046942 -0.283750 76 153 0
-0.308011 -0.590740 -0.110912 76 153 0
-0.189672 -0.676037 0.050675 76 153 0
0.163905 -0.218216 -0.283727 76 153 0
0.222939 -0.181418 0.258217 76 153 0
-0.278084 0.439108 -0.136330 76 153 0
0.119146 0.551396 0.234028 76 153 0
-0.069280 0.068897 0.331596 76 153 0
-0.187136 -0.597077 0.279939 76 153 0
0.291423 -0.403134 0.173908 76 153 0
-0.301767 0.467811 -0.003323 76 153 0
-0.079816 -0.475935 0.169750 76 153 0
0.148323 0.632528 0.039930 76 153 0
0.336152 -0.220171 0.046849 76 153 0
-0.075048 0.699117 0.032943 153 0 76
0.247676 -0.082806 0.233483 76 153 0
0.171494 0.547794 0.203298 76 153 0
-0.137909 0.185403 -0.024841 76 153 0
0.230403 -0.168151 -0.235856 76 153 0
-0.056553 -0.668962 -0.268926 76 153 0
0.061114 0.035149 0.335963 76 153 0
-0.323885 -0.151641 -0.051685 76 153 0
0.203585 -0.676037 0.093609 76 153 0
-0.181941 -0.108090 0.283512 76 153 0
0.028918 -0.597388 -0.324103 76 153 0
0.029653 0.043491 -0.012352 76 153 0
-0.326632 0.371996 0.036497 76 153 0
-0.043418 -0.423108 0.159315 76 153 0
-0.060236 0.580024 -0.042965 76 153 0
0.175630 0.229533 -0.276956 76 153 0
0.288318 0.353151 -0.162820 76 153 0
-0.318453 0.117763 -0.071953 76 153 0
0.037862 0.546173 0.265729 76 153 0
0.061177 -0.676037 -0.164513 76 153 0
-0.023455 0.550689 0.261822 76 153 0
0.237455 -0.060544 0.243703 76 153 0
0.043506 0.973681 -0.031339 76 0 153
0.165451 0.916319 -0.267525 76 0 153
0.113712 0.625129 -0.113708 76 153 0
-0.133997 -0.676037 0.071874 76 153 0
0.272193 0.406760 -0.178049 76 153 0
0.327032 -0.374366 -0.070305 76 153 0
0.095991 0.185403 -0.057140 76 153 0
-0.168193 -0.676037 -0.044838 76 153 0
0.219439 -0.317910 -0.246822 76 153 0
-0.328014 -0.427818 0.011782 76 153 0
-0.058886 -0.511727 0.130176 76 153 0
0.303278 -0.436582 -0.138466 76 153 0
-0.010398 -0.400757 0.117435 76 153 0
-0.018988 0.035651 0.027526 76 153 0
0.243931 0.284100 0.237228 76 153 0
0.264388 -0.345365 0.216774 76 153 0
-0.116012 0.644355 -0.005005 76 153 0
0.263792 -0.662177 -0.131533 76 153 0
-0.057541 -0.664303 0.292452 76 153 0
-0.286011 0.052456 -0.154284 76 153 0
0.099866 0.592594 -0.181776 76 153 0
-0.258146 0.454042 -0.161493 76 153 0
-0.255090 0.455511 0.180767 76 153 0
0.169690 -0.650659 0.267337 76 153 0
-0.146518 -0.298622 -0.289061 76 153 0
0.281001 0.073506 0.191957 76 153 0
0.065768 0.161149 -0.319818 76 153 0
0.105200 -0.666979 0.276934 76 153 0
-0.169090 0.415625 0.280964 76 153 0
-0.285614 0.188494 -0.154970 76 153 0
0.178025 -0.405203 -0.275574 76 153 0
-0.053278 -0.274291 0.064753 76 153 0
-0.292942 0.480484 0.057609 76 153 0
0.025036 -0.513614 0.339536 76 153 0
-0.271677 -0.491091 0.194014 76 153 0
-0.234002 0.122205 0.239016 76 153 0
-0.163947 -0.364510 0.293903 76 153 0
-0.086385 -0.255636 -0.312110 76 153 0
0.249152 -0.119415 0.232008 76 153 0
0.155719 -0.673629 -0.215899 76 153 0
-0.328014 -0.292292 0.001467 76 153 0
0.320426 -0.155018 -0.094963 76 153 0
-0.321476 0.401780 0.051262 76 153 0
0.060804 -0.154906 -0.321149 76 153 0
-0.259854 0.185403 0.109766 76 153 0
-0.019845 0.620226 0.179219 76 153 0
0.162983 -0.037350 -0.284260 76 153 0
-0.214026 -0.676037 -0.110919 76 153 0
-0.318278 -0.385887 -0.072605 76 153 0
0.281436 -0.526710 0.191204 76 153 0
0.073062 0.664334 -0.039092 153 0 76
-0.276401 -0.600383 -0.169243 76 153 0
-0.092322 0.397053 0.319740 76 153 0
-0.007080 -0.323201 0.110905 76 153 0
0.288382 0.014688 -0.164273 76 153 0
0.079094 -0.676037 -0.109170 76 153 0
-0.198744 -0.112563 0.273810 76 153 0
-0.039834 -0.002175 -0.324581 76 153 0
0.031323 0.039921 0.021963 76 153 0
0.156053 -0.676037 -0.172868 76 153 0
-0.078949 0.645416 0.015556 76 153 0
0.254543 0.354212 -0.210559 76 153 0
0.030677 0.148076 0.017478 76 153 0
0.209205 0.593037 -0.043242 76 153 0
0.021190 0.185403 0.203674 76 153 0
-0.141422 0.185403 -0.046379 76 153 0
-0.099589 -0.063526 -0.308572 76 153 0
0.037987 0.257810 -0.324632 76 153 0
-0.073868 0.597567 -0.022446 76 153 0
0.334585 0.223319 -0.042113 76 153 0
0.127643 0.185403 0.274464 76 153 0
0.073936 -0.631416 -0.306605 76 153 0
-0.165804 -0.633681 0.279207 76 153 0
0.239733 0.250831 -0.226524 76 153 0
0.042161 0.272867 -0.016333 76 153 0
-0.016077 0.185403 0.304774 76 153 0
-0.083564 -0.032548 -0.312865 76 153 0
-0.033674 -0.090451 0.039441 76 153 0
-0.263196 -0.566609 -0.193794 76 153 0
0.336153 -0.459556 0.022755 76 153 0
0.254824 -0.046734 0.226337 76 153 0
0.000217 -0.314497 0.075423 76 153 0
-0.032849 0.640420 -0.118543 76 153 0
-0.139468 -0.255639 0.308038 76 153 0
-0.260540 -0.136540 0.212473 76 153 0
0.096117 0.946811 -0.014557 76 0 153
0.013063 0.718179 -0.032796 76 0 153
-0.264332 -0.230862 0.206737 76 153 0
0.336156 -0.424978 -0.029193 76 153 0
0.003785 0.185403 -0.177562 76 153 0
0.176345 0.185403 0.020985 76 153 0
0.284950 0.143152 -0.170219 76 153 0
-0.190731 0.185403 -0.259237 76 153 0
0.104759 0.185403 -0.078846 76 153 0
0.156196 -0.256020 -0.288179 76 153 0
0.043890 0.880747 -0.065423 76 0 153
0.078366 0.185403 0.108075 76 153 0
-0.031142 0.973681 0.048350 76 0 153
0.325560 -0.360700 0.090707 76 153 0
-0.036281 -0.151478 0.024694 76 153 0
0.180422 0.185403 -0.037277 76 153 0
-0.147375 0.629187 0.040045 76 153 0
-0.007634 -0.053109 0.339534 76 153 0
0.304018 0.444957 0.102781 76 153 0
0.178657 -0.632831 -0.262127 76 153 0
0.126297 0.092189 0.318504 76 153 0
-0.009386 -0.676037 0.232982 76 153 0
-0.133678 -0.325934 0.311381 76 153 0
-0.310607 -0.180359 -0.101229 76 153 0
0.080221 0.205454 -0.315944 76 153 0
0.112018 0.910878 -0.239572 76 0 153
0.334243 0.285050 0.058311 76 153 0
-0.025533 0.573431 0.014813 153 0 76
0.041205 0.826073 -0.011128 76 0 153
-0.317986 -0.602912 -0.069427 76 153 0
0.118771 -0.676037 0.139013 76 153 0
0.246084 -0.357999 -0.220172 76 153 0
0.005347 0.300670 0.018448 76 153 0
-0.144209 0.596891 -0.136854 76 153 0
0.158732 0.185403 0.173049 76 153 0
-0.221242 0.472863 0.211295 76 153 0
-0.117035 0.524393 -0.239753 76 153 0
0.036802 0.959475 -0.204045 76 0 153
0.002840 0.608598 -0.182251 76 153 0
-0.166595 -0.676037 0.117626 76 153 0
0.044906 0.862437 0.001134 76 0 153
-0.021577 -0.546286 -0.324635 76 153 0
0.332448 0.350085 0.062397 76 153 0
0.061875 -0.676037 0.120662 76 153 0
0.152828 -0.399194 0.305023 76 153 0
-0.227065 -0.171137 -0.231052 76 153 0
-0.035729 0.748423 -0.003966 76 0 153
-0.322871 0.158781 -0.055470 76 153 0
-0.240686 -0.566707 0.232330 76 153 0
-0.123555 -0.010731 0.317049 76 153 0
0.277945 0.240814 -0.182355 76 153 0
-0.151216 0.095085 -0.286350 76 153 0
-0.041801 -0.167157 0.053493 76 153 0
0.052388 -0.404881 -0.323404 76 153 0
-0.098624 -0.528553 0.323731 76 153 0
0.325853 -0.519081 0.089615 76 153 0
0.021820 0.528919 0.028550 153 0 76
-0.018341 0.263679 -0.002725 76 153 0
-0.075017 -0.169064 -0.315155 76 153 0
-0.183122 0.461508 -0.241046 76 153 0
-0.241805 0.312948 0.231211 76 153 0
-0.302166 -0.638982 -0.074153 76 153 0
-0.228390 0.185403 0.178218 76 153 0
0.330479 -0.102678 -0.057439 76 153 0
-0.292503 0.446698 -0.098389 76 153 0
0.055431 0.857799 -0.042877 76 0 153
0.041926 0.447560 -0.306138 76 153 0
0.250773 0.268930 -0.215483 76 153 0
0.078115 0.185403 0.072543 76 153 0
0.219588 -0.520388 -0.246672 76 153 0
-0.275358 -0.665880 0.079022 76 153 0
0.063857 -0.676037 0.100864 76 153 0
-0.046938 0.630171 -0.136933 76 153 0
-0.223230 -0.062628 -0.234886 76 153 0
0.224188 -0.577355 0.256968 76 153 0
0.046475 0.934313 0.078831 76 0 153
-0.328015 -0.101004 0.029732 76 153 0
-0.206905 0.076763 0.266117 76 153 0
0.264928 0.264626 -0.201326 76 153 0
-0.231650 -0.649424 -0.193786 76 153 0
-0.018570 0.444794 0.006433 153 0 76
-0.103843 0.185403 0.154641 76 153 0
-0.316338 -0.361210 0.094750 76 153 0
0.298925 -0.402167 -0.146008 76 153 0
-0.138357 -0.676037 0.180992 76 153 0
0.113618 0.914889 -0.317504 76 0 153
-0.065105 0.715301 0.002469 153 0 76
-0.090521 0.641968 -0.078359 76 153 0
-0.189832 -0.555580 0.278956 76 153 0
-0.294898 0.185403 0.108008 76 153 0
-0.038458 0.640694 0.078759 76 153 0
0.323677 -0.400305 -0.082829 76 153 0
-0.170906 -0.212078 0.289884 76 153 0
0.279141 -0.390734 0.195178 76 153 0
0.301317 -0.186834 -0.141863 76 153 0
0.048359 0.309920 -0.324484 76 153 0
-0.309662 -0.642169 -0.038365 76 153 0
0.031122 0.606945 -0.071250 76 153 0
0.267687 0.140890 0.213475 76 153 0
-0.076963 -0.524247 -0.314634 76 153 0
-0.217400 0.150516 -0.240716 76 153 0
-0.119352 -0.316552 -0.303277 76 153 0
0.323029 -0.582409 -0.085248 76 153 0
0.133708 -0.676037 0.105818 76 153 0
0.112095 -0.543733 0.322308 76 153 0
-0.039011 -0.444047 0.102638 76 153 0
0.061924 -0.676037 -0.144949 76 153 0
0.243866 -0.564512 0.237293 76 153 0
0.092172 -0.676037 -0.215514 76 153 0
0.326441 0.265666 0.087422 76 153 0
0.070981 -0.676037 -0.074905 76 153 0
0.324502 -0.345691 -0.079747 76 153 0
0.257616 0.362678 0.222010 76 153 0
0.318515 0.276340 0.116995 76 153 0
-0.034362 -0.340948 0.339532 76 153 0
0.055686 0.185403 0.246252 76 153 0
0.008878 0.087957 -0.324634 76 153 0
0.314135 0.036347 -0.118443 76 153 0
0.069254 0.640403 -0.044771 153 0 76
-0.049418 0.623411 0.165793 76 153 0
0.080405 0.876743 -0.026373 76 0 153
0.211285 0.411428 -0.243771 76 153 0
0.029729 0.342229 -0.035544 76 153 0
0.329398 -0.621294 -0.037858 76 153 0
0.253132 0.185403 -0.104881 76 153 0
0.121147 0.185403 -0.140398 76 153 0
0.127348 0.069957 0.318223 76 153 0
0.039789 0.910878 -0.180176 76 0 153
-0.240601 0.015707 0.232416 76 153 0
0.230191 0.565373 0.097327 76 153 0
-0.158688 0.185403 0.274014 76 153 0
-0.068507 0.039717 0.331803 76 153 0
0.296496 0.496313 0.005137 76 153 0
0.153339 0.442795 0.285093 76 153 0
0.266839 -0.536643 0.214323 76 153 0
0.123585 -0.263312 -0.304322 76 153 0
0.009344 0.562710 -0.025150 153 0 76
0.090519 0.430042 -0.299720 76 153 0
0.040358 -0.264830 0.339536 76 153 0
-0.056779 0.550532 -0.239729 76 153 0
-0.223423 -0.245123 0.249596 76 153 0
0.336154 -0.060879 0.017267 76 153 0
0.002631 -0.226621 0.084404 76 153 0
0.204335 -0.555495 0.275288 76 153 0
0.285500 0.510397 0.053385 76 153 0
-0.077713 -0.388228 -0.314433 76 153 0
-0.328013 -0.151446 -0.016617 76 153 0
-0.011236 -0.675305 0.268154 76 153 0
0.078036 0.619847 0.045378 76 153 0
0.298867 0.134361 0.161017 76 153 0
0.155144 0.591926 0.156944 76 153 0
-0.043810 -0.201213 0.042179 76 153 0
0.324024 0.124739 0.096440 76 153 0
0.018828 0.221274 -0.039357 76 153 0
-0.094904 0.146973 0.324728 76 153 0
-0.314267 0.432415 0.000654 76 153 0
-0.036967 -0.542379 0.339532 76 153 0
0.194524 -0.676037 0.029267 76 153 0
-0.145949 -0.194141 0.304296 76 153 0
-0.328012 -0.404352 -0.021263 76 153 0
-0.159980 0.368989 -0.279800 76 153 0
0.336153 0.199861 0.029606 76 153 0
0.016723 0.463634 -0.034720 76 153 0
0.336152 0.095549 0.050519 76 153 0
-0.294681 -0.658957 0.041137 76 153 0
-0.113332 0.616432 0.141562 76 153 0
0.210932 0.100293 -0.255330 76 153 0
0.322543 -0.255016 0.101965 76 153 0
-0.211339 0.123953 0.261682 76 153 0
-0.008954 0.704284 0.046890 76 0 153
-0.280098 -0.468945 0.179428 76 153 0
-0.108405 -0.676037 -0.213065 76 153 0
0.294032 -0.508626 0.169389 76 153 0
-0.129479 0.223821 0.313806 76 153 0
-0.135387 -0.667645 0.256366 76 153 0
-0.028732 -0.676037 0.139575 76 153 0
0.011694 0.176565 -0.324633 76 153 0
-0.323799 -0.523758 0.066893 76 153 0
0.202077 -0.146157 0.276591 76 153 0
0.257777 -0.589717 -0.208478 76 153 0
0.070964 0.580024 -0.041200 76 153 0
-0.328016 -0.175713 0.042151 76 153 0
-0.162434 0.617522 -0.051918 76 153 0
0.126225 -0.676037 -0.065927 76 153 0
-0.266924 -0.331967 -0.187338 76 153 0
-0.116203 0.588758 -0.172684 76 153 0
-0.024096 0.895919 0.085852 76 0 153
0.199361 -0.676037 -0.064931 76 153 0
0.126377 -0.316897 -0.303574 76 153 0
-0.017910 0.445677 0.321629 76 153 0
-0.020142 -0.466065 0.339533 76 153 0
-0.101824 0.608098 -0.151334 76 153 0
-0.099375 0.091490 0.323530 76 153 0
-0.058847 -0.050596 0.334392 76 153 0
-0.283583 -0.086598 0.173392 76 153 0
-0.048475 -0.219773 0.058942 76 153 0
-0.107587 -0.675046 -0.231561 76 153 0
-0.108828 -0.221227 0.320996 76 153 0
0.321698 0.092229 0.105119 76 153 0
-0.040116 -0.667640 0.290978 76 153 0
0.075657 0.612130 -0.034597 76 153 0
-0.018833 -0.070643 -0.324635 76 153 0
-0.000971 -0.165189 -0.324634 76 153 0
0.016903 0.378044 -0.040072 76 153 0
0.039981 0.643439 0.125117 76 153 0
-0.218223 -0.579747 -0.239892 76 153 0
-0.015177 0.100432 0.020485 76 153 0
0.095986 0.631675 -0.112096 76 153 0
-0.022143 -0.451865 0.121293 76 153 0
-0.012720 0.023892 0.339533 76 153 0
-0.279201 -0.667363 -0.039595 76 153 0
0.098179 0.265405 -0.311131 76 153 0
0.270737 0.370619 0.207051 76 153 0
0.005652 -0.253063 0.050749 76 153 0
0.162910 -0.676037 -0.069567 76 153 0
-0.189822 -0.647849 0.252338 76 153 0
0.070559 -0.507085 0.333433 76 153 0
0.045142 0.112506 -0.324632 76 153 0
0.134517 -0.117812 0.315593 76 153 0
-0.080410 0.173369 0.328613 76 153 0
-0.162129 0.444449 0.274724 76 153 0
0.025461 0.185403 0.119425 76 153 0
0.176899 0.523297 -0.209121 76 153 0
-0.252742 -0.675781 0.024457 76 153 0
-0.019032 -0.006366 -0.010108 76 153 0
0.285394 0.374969 -0.165954 76 153 0
-0.091511 0.602354 0.182230 76 153 0
0.336157 -0.080130 -0.034599 76 153 0
-0.324792 0.212833 0.063186 76 153 0
-0.034661 0.853359 0.021540 76 0 153
0.012930 0.185403 0.087837 76 153 0
-0.318095 -0.007406 0.088189 76 153 0
-0.308276 -0.311297 -0.109924 76 153 0
0.270229 -0.085335 -0.195723 76 153 0
0.038812 -0.676037 -0.036186 76 153 0
0.130103 0.185403 0.295616 76 153 0
0.328684 0.408758 -0.007512 76 153 0
0.101366 0.185403 -0.109000 76 153 0
-0.234601 0.447742 0.212179 76 153 0
0.265943 0.303227 -0.200310 76 153 0
0.179177 0.961829 -0.351668 76 0 153
-0.223478 0.179800 -0.234639 76 153 0
-0.295273 0.087250 -0.138243 76 153 0
0.043970 0.656497 -0.059231 76 153 0
-0.001078 0.124427 0.339534 76 153 0
-0.084289 0.358780 0.326577 76 153 0
-0.164205 0.071516 -0.278852 76 153 0
0.268767 0.383482 -0.191873 76 153 0
-0.238850 -0.675812 0.092142 76 153 0
0.020070 -0.098281 0.047951 76 153 0
0.021296 -0.185619 0.339535 76 153 0
0.161621 -0.054779 -0.285046 76 153 0
0.323480 -0.402217 0.098470 76 153 0
0.316140 0.315310 0.125855 76 153 0
-0.154157 0.185403 -0.015545 76 153 0
0.305901 0.365335 -0.131576 76 153 0
-0.118838 0.185403 -0.185782 76 153 0
0.199846 0.527275 0.197421 76 153 0
0.221678 -0.676037 0.040759 76 153 0
0.179831 0.573751 0.161493 76 153 0
-0.271124 0.511055 -0.060123 76 153 0
-0.093068 0.284390 0.325220 76 153 0
-0.183756 0.320283 0.282464 76 153 0
-0.209784 -0.356399 0.263237 76 153 0
0.036551 0.843071 -0.018041 76 0 153
-0.139089 -0.105880 0.308257 76 153 0
0.024209 0.895191 -0.073102 76 0 153
0.184236 0.472534 0.254019 76 153 0
-0.279098 0.113083 0.181160 76 153 0
0.007575 0.418968 -0.038541 76 153 0
0.312970 0.185403 -0.054366 76 153 0
-0.256589 -0.670901 -0.093277 76 153 0
-0.235922 0.567331 0.024485 76 153 0
-0.013332 -0.676037 -0.198347 76 153 0
0.022316 0.590911 -0.206238 76 153 0
0.188989 0.185403 0.110358 76 153 0
-0.049590 0.302747 -0.321967 76 153 0
0.266812 0.474880 -0.142489 76 153 0
-0.312256 -0.216837 -0.095075 76 153 0
-0.043198 -0.332749 0.123889 76 153 0
-0.052142 -0.384851 0.142575 76 153 0
0.190694 -0.429158 0.283162 76 153 0
0.300577 -0.189249 0.158055 76 153 0
-0.015945 -0.418377 0.109047 76 153 0
0.278548 -0.016285 -0.181309 76 153 0
-0.169327 -0.515915 0.290796 76 153 0
-0.287051 0.206672 0.167384 76 153 0
0.126728 0.185403 0.112889 76 153 0
0.102070 -0.676037 -0.031847 76 153 0
-0.065518 0.185403 0.154606 76 153 0
